0.451871, 0.252659, 0.0687218
-0.2086, 0.265197, 0.0765076
-0.1984, 0.264533, 0.088829
-0.188595, 0.264355, 0.0921316
-0.178853, 0.264251, 0.0940638
-0.169165, 0.26422, 0.0946379
-0.159579, 0.264353, 0.0921774
-0.150104, 0.264699, 0.0857501
-0.14071, 0.265247, 0.0755692
-0.124964, 0.273255, -0.0730896
-0.114792, 0.272839, -0.0653811
-0.104623, 0.272352, -0.0563378
-0.0945845, 0.272138, -0.0523591
-0.0845991, 0.272044, -0.0506182
-0.0746521, 0.272065, -0.051012
-0.0647335, 0.272213, -0.0537453
-0.0548382, 0.272529, -0.0596237
0.383674, 0.272392, -0.0570731
0.388226, 0.268646, 0.0124774
0.392375, 0.264813, 0.083632
0.401626, 0.264525, 0.0889859
0.411087, 0.264385, 0.0915723
0.420922, 0.264488, 0.0896726
0.431285, 0.264909, 0.0818462
0.441721, 0.265356, 0.0735412
-0.198411, 0.277452, 0.0885601
-0.188472, 0.277069, 0.0953412
-0.178798, 0.277056, 0.0955796
-0.16908, 0.276969, 0.0971141
-0.159467, 0.277054, 0.095612
-0.149939, 0.277307, 0.0911326
-0.140498, 0.277766, 0.0830135
-0.131028, 0.278232, 0.0747523
-0.124823, 0.286262, -0.0673838
-0.114587, 0.285637, -0.0563326
-0.104521, 0.285358, -0.051384
-0.0945208, 0.285221, -0.048954
-0.0845669, 0.285206, -0.0486989
-0.0746436, 0.285304, -0.0504375
-0.0647323, 0.285486, -0.0536537
-0.0548449, 0.285858, -0.0602455
0.353954, 0.285822, -0.0596027
0.363663, 0.285617, -0.0559683
0.368476, 0.28168, 0.0137272
0.373, 0.277732, 0.0836148
0.382365, 0.277497, 0.0877676
0.391885, 0.277383, 0.0897818
0.401492, 0.277336, 0.0906162
0.411309, 0.277432, 0.0889263
0.421379, 0.27769, 0.0843482
0.431719, 0.278111, 0.0769043
0.441849, 0.278381, 0.0721178
-0.198501, 0.290489, 0.0863328
-0.188416, 0.289871, 0.096776
-0.178695, 0.289775, 0.0983987
-0.169042, 0.289786, 0.0982146
-0.159367, 0.289758, 0.0986981
-0.149793, 0.289922, 0.0959229
-0.140301, 0.290278, 0.0898962
-0.130916, 0.290925, 0.078948
-0.123808, 0.297139, -0.0261626
-0.11447, 0.298618, -0.0511684
-0.104449, 0.298425, -0.047905
-0.0944725, 0.298334, -0.0463762
-0.0845369, 0.298366, -0.0469089
-0.0746268, 0.298507, -0.0493007
-0.0647543, 0.298866, -0.055367
-0.0549212, 0.29957, -0.0672855
0.314619, 0.299637, -0.0684123
0.324058, 0.29913, -0.0598369
0.333966, 0.299073, -0.0588799
0.341262, 0.296749, -0.0195665
0.34622, 0.29258, 0.0509586
0.353172, 0.290278, 0.089891
0.362573, 0.290058, 0.0936122
0.372106, 0.289953, 0.0953946
0.381774, 0.289954, 0.0953689
0.391635, 0.2901, 0.092906
0.401682, 0.290372, 0.0883026
0.411907, 0.290758, 0.081778
0.421971, 0.291015, 0.0774364
0.43199, 0.291229, 0.0738053
0.442017, 0.29144, 0.07024
-0.198553, 0.303479, 0.0850382
-0.188433, 0.302782, 0.0963316
-0.178634, 0.302551, 0.10007
-0.168984, 0.302563, 0.0998845
-0.159315, 0.302537, 0.100298
-0.14968, 0.30258, 0.0996037
-0.140131, 0.302813, 0.0958357
-0.130689, 0.303327, 0.0875101
-0.121297, 0.304051, 0.0757761
-0.112502, 0.306527, 0.0356717
-0.104363, 0.311431, -0.0437441
-0.0944172, 0.311411, -0.0434203
-0.0845017, 0.311496, -0.0448036
-0.0746111, 0.311708, -0.0482354
-0.0647697, 0.312223, -0.0565758
0.2846, 0.312894, -0.0674334
0.294093, 0.31237, -0.0589509
0.304021, 0.312327, -0.0582609
0.31364, 0.311981, -0.0526433
0.31901, 0.307558, 0.0189743
0.324194, 0.303226, 0.0891438
0.333421, 0.302817, 0.0957594
0.342827, 0.302589, 0.099462
0.35233, 0.302456, 0.101605
0.361931, 0.302414, 0.102297
0.371654, 0.302471, 0.101363
0.381507, 0.30263, 0.098794
0.391542, 0.302921, 0.0940733
0.401909, 0.303449, 0.0855279
0.412354, 0.30401, 0.0764461
0.422382, 0.304244, 0.07265
-0.198516, 0.316334, 0.0859661
-0.188488, 0.315757, 0.0949154
-0.178624, 0.315408, 0.100345
-0.168921, 0.315319, 0.101729
-0.159287, 0.315357, 0.101143
-0.149612, 0.315312, 0.10184
-0.140025, 0.315459, 0.0995493
-0.130519, 0.315824, 0.0938745
-0.121093, 0.316455, 0.0840783
-0.111648, 0.317146, 0.0733395
-0.102216, 0.318006, 0.059988
-0.0935375, 0.321638, 0.00357056
-0.0844784, 0.324662, -0.0434146
-0.0746392, 0.325095, -0.0501366
-0.0648087, 0.325705, -0.0596132
-0.0246422, 0.321992, -0.00193167
-0.014758, 0.321396, 0.00733089
-0.00491551, 0.321145, 0.0112185
0.00491691, 0.321237, 0.00979662
0.0147689, 0.321632, 0.00365353
0.0246476, 0.322063, -0.00303411
0.264568, 0.326133, -0.0662694
0.274254, 0.325781, -0.060792
0.283739, 0.325221, -0.0520978
0.291473, 0.322761, -0.013875
0.29707, 0.318173, 0.0573835
0.304415, 0.31569, 0.0959702
0.313838, 0.315448, 0.0997295
0.323267, 0.315225, 0.103182
0.332739, 0.315057, 0.1058
0.3423, 0.31498, 0.106991
0.351974, 0.315009, 0.106542
0.361739, 0.315115, 0.104902
0.371551, 0.315255, 0.102722
0.381488, 0.315492, 0.0990362
0.391702, 0.315941, 0.0920668
0.402279, 0.316653, 0.0810027
0.412587, 0.317126, 0.0736585
-0.198596, 0.329378, 0.0839777
-0.188562, 0.328774, 0.0929928
-0.178661, 0.32835, 0.0993257
-0.168909, 0.328166, 0.102074
-0.159227, 0.328104, 0.103004
-0.149571, 0.328091, 0.103198
-0.139941, 0.328138, 0.10249
-0.130384, 0.328373, 0.098978
-0.120878, 0.328789, 0.0927773
-0.111413, 0.329395, 0.0837245
-0.101966, 0.330176, 0.0720763
-0.092487, 0.331006, 0.0596848
-0.0828601, 0.331441, 0.0531983
-0.0731834, 0.331765, 0.0483618
-0.0634816, 0.332058, 0.0439897
-0.0537397, 0.332209, 0.0417223
-0.043975, 0.332255, 0.0410376
-0.0342037, 0.332265, 0.0408959
-0.0244317, 0.332272, 0.0407915
-0.0146594, 0.332278, 0.0407009
-0.0048872, 0.332329, 0.0399451
0.00488796, 0.33238, 0.039175
0.014667, 0.332452, 0.0381069
0.0244496, 0.332514, 0.0371723
0.0342573, 0.332785, 0.0331359
0.0440878, 0.333108, 0.0283165
0.0539374, 0.333431, 0.0234866
0.0637816, 0.333627, 0.0205717
0.0735989, 0.333648, 0.0202475
0.0835951, 0.334381, 0.0093174
0.254532, 0.339377, -0.0652466
0.263849, 0.338524, -0.0525174
0.273291, 0.337887, -0.0430155
0.277483, 0.331033, 0.0592837
0.284939, 0.328405, 0.0985107
0.294342, 0.328119, 0.102776
0.303804, 0.327916, 0.10581
0.313307, 0.327768, 0.108018
0.322858, 0.327677, 0.109369
0.332482, 0.327663, 0.109579
0.342191, 0.327732, 0.108547
0.351978, 0.327869, 0.106498
0.361828, 0.328057, 0.103692
0.371751, 0.3283, 0.100074
0.381978, 0.328792, 0.0927358
0.392545, 0.329544, 0.081512
-0.198992, 0.342978, 0.0741644
-0.188633, 0.341797, 0.0911388
-0.178727, 0.341353, 0.0975113
-0.168936, 0.34109, 0.101281
-0.159211, 0.340936, 0.103499
-0.149534, 0.340873, 0.104396
-0.139892, 0.340887, 0.104202
-0.130285, 0.340993, 0.102683
-0.120711, 0.341209, 0.0995722
-0.111195, 0.341642, 0.0933537
-0.101704, 0.342242, 0.0847402
-0.0922001, 0.34292, 0.0750074
-0.0825728, 0.343244, 0.0703526
-0.0728849, 0.343369, 0.0685616
-0.0631874, 0.34348, 0.0669551
-0.0534811, 0.343576, 0.065589
-0.0437707, 0.343681, 0.064074
-0.0340554, 0.343797, 0.0624089
-0.0243337, 0.343916, 0.0606933
-0.0146025, 0.343969, 0.0599318
-0.00486757, 0.343974, 0.0598679
0.00486775, 0.343986, 0.059691
0.0146042, 0.344008, 0.0593758
0.0243431, 0.34405, 0.0587807
0.0340882, 0.344129, 0.0576439
0.0438407, 0.34423, 0.056191
0.0536052, 0.344373, 0.0541344
0.0633896, 0.344579, 0.0511746
0.0732178, 0.344937, 0.0460339
0.0830839, 0.345369, 0.0398378
0.0930374, 0.346034, 0.0302835
0.103021, 0.346672, 0.0211105
0.112954, 0.347047, 0.0157342
0.24421, 0.352194, -0.0581865
0.253861, 0.351755, -0.0518904
0.263198, 0.350931, -0.0400462
0.267579, 0.343798, 0.0623918
0.27508, 0.341035, 0.102076
0.284471, 0.340723, 0.106562
0.293924, 0.340502, 0.109726
0.303455, 0.340383, 0.111443
0.313051, 0.340343, 0.112015
0.322741, 0.340404, 0.111142
0.33249, 0.340521, 0.10946
0.342354, 0.340747, 0.106215
0.352268, 0.341008, 0.102459
0.362301, 0.341368, 0.0972915
0.37242, 0.341788, 0.0912652
0.382599, 0.34224, 0.0847626
-0.20926, 0.356877, 0.0609365
-0.198848, 0.355663, 0.0777421
-0.188645, 0.354716, 0.090837
-0.178729, 0.354237, 0.0974646
-0.168907, 0.3539, 0.102131
-0.159149, 0.353665, 0.105388
-0.149448, 0.353533, 0.107214
-0.139792, 0.353498, 0.107698
-0.130175, 0.353561, 0.106831
-0.120573, 0.35368, 0.105177
-0.110986, 0.353868, 0.102579
-0.101459, 0.3543, 0.0965981
-0.0919412, 0.354861, 0.0888371
-0.0824136, 0.35551, 0.0798554
-0.0727257, 0.355547, 0.0793343
-0.0630377, 0.355597, 0.0786433
-0.0533522, 0.355682, 0.077477
-0.0436623, 0.355767, 0.0762997
-0.0339673, 0.355848, 0.075171
-0.0242673, 0.355921, 0.0741591
-0.0145611, 0.355935, 0.0739641
-0.00485361, 0.35593, 0.0740418
0.0048534, 0.355914, 0.0742569
0.0145594, 0.355894, 0.0745378
0.0242673, 0.355921, 0.0741715
0.0339789, 0.35597, 0.0734906
0.043693, 0.356017, 0.0728407
0.0534095, 0.356064, 0.0721884
0.0631468, 0.356213, 0.0701284
0.0729148, 0.356472, 0.0665369
0.082699, 0.356741, 0.0628147
0.092505, 0.357037, 0.0587234
0.102389, 0.35755, 0.0516253
0.112357, 0.358238, 0.0420947
0.122454, 0.359198, 0.0288095
0.132304, 0.359344, 0.0267954
0.142675, 0.360787, 0.0068202
0.233942, 0.365016, -0.0517097
0.243544, 0.364487, -0.0443883
0.251568, 0.361731, -0.006248
0.256412, 0.354784, 0.0899014
0.265407, 0.353877, 0.102458
0.27477, 0.353506, 0.107592
0.284212, 0.353258, 0.111019
0.293709, 0.353092, 0.113311
0.303286, 0.353031, 0.11416
0.312914, 0.353031, 0.11416
0.322635, 0.353133, 0.112749
0.332497, 0.353378, 0.109355
0.342424, 0.353678, 0.105213
0.352431, 0.35404, 0.100195
0.362487, 0.354432, 0.0947714
0.372542, 0.354802, 0.0896468
0.382775, 0.355319, 0.0824966
-0.22056, 0.372501, 0.0255914
-0.209481, 0.370245, 0.0557184
-0.198689, 0.368302, 0.0816665
-0.188595, 0.367519, 0.0921187
-0.178646, 0.366948, 0.0997415
-0.168792, 0.366519, 0.105478
-0.159052, 0.366302, 0.108366
-0.149373, 0.366206, 0.109659
-0.13972, 0.366164, 0.110216
-0.13009, 0.366179, 0.110012
-0.120481, 0.366261, 0.108916
-0.110884, 0.3664, 0.107065
-0.101297, 0.366597, 0.10443
-0.0917422, 0.366969, 0.0994697
-0.0822132, 0.367541, 0.0918207
-0.0726114, 0.367898, 0.0870652
-0.0629231, 0.367858, 0.0875959
-0.0532414, 0.36785, 0.0877013
-0.043564, 0.367873, 0.0873928
-0.033888, 0.367927, 0.0866756
-0.0242094, 0.367984, 0.0859132
-0.0145252, 0.36797, 0.086092
-0.00484131, 0.367938, 0.0865221
0.00484085, 0.367903, 0.0869861
0.0145209, 0.367861, 0.0875506
0.0242021, 0.367872, 0.0874062
0.0338852, 0.367897, 0.0870767
0.0435698, 0.367922, 0.0867362
0.0532555, 0.367948, 0.0863976
0.0629577, 0.36806, 0.0848908
0.0726803, 0.368247, 0.0824013
0.0824174, 0.368454, 0.0796294
0.0921716, 0.368686, 0.0765305
0.101987, 0.369095, 0.0710773
0.11184, 0.36956, 0.0648689
0.121723, 0.370039, 0.0584631
0.131641, 0.370545, 0.051713
0.141636, 0.371184, 0.0431757
0.151782, 0.372111, 0.0307961
0.161832, 0.372705, 0.0228677
0.171903, 0.373274, 0.0152612
0.182217, 0.374284, 0.00177526
0.223284, 0.377101, -0.0358396
0.23193, 0.375035, -0.00825548
0.239142, 0.370914, 0.0467892
0.246837, 0.367835, 0.0878963
0.255866, 0.366902, 0.100361
0.265204, 0.366463, 0.106221
0.274605, 0.36614, 0.110534
0.284085, 0.36594, 0.113212
0.293615, 0.365815, 0.114871
0.303128, 0.365679, 0.116698
0.312704, 0.365623, 0.117441
0.322456, 0.365771, 0.115458
0.332306, 0.366018, 0.112162
0.34227, 0.366373, 0.10742
0.352325, 0.366804, 0.101669
0.362441, 0.367273, 0.0954037
0.372459, 0.367621, 0.0907516
0.382981, 0.368437, 0.0798621
-0.220043, 0.384668, 0.0372367
-0.209344, 0.382985, 0.0589547
-0.198616, 0.381084, 0.0834827
-0.188494, 0.380211, 0.0947456
-0.178528, 0.379573, 0.102972
-0.168723, 0.379225, 0.10747
-0.159011, 0.379056, 0.109647
-0.149328, 0.37894, 0.111137
-0.139681, 0.378906, 0.111585
-0.130048, 0.378906, 0.111582
-0.120423, 0.37893, 0.111274
-0.110807, 0.378991, 0.11048
-0.101224, 0.37919, 0.107918
-0.0916387, 0.379416, 0.104995
-0.0820508, 0.379686, 0.101516
-0.0725054, 0.38025, 0.0942388
-0.0628355, 0.380235, 0.0944352
-0.0531638, 0.380202, 0.0948601
-0.0434948, 0.380177, 0.0951891
-0.033827, 0.380151, 0.0955195
-0.0241618, 0.380146, 0.0955772
-0.0144958, 0.380112, 0.0960231
-0.0048312, 0.380053, 0.096787
0.00483038, 0.379988, 0.0976195
0.0144887, 0.379925, 0.0984287
0.0241472, 0.379917, 0.0985413
0.0338068, 0.379923, 0.0984559
0.0434671, 0.379934, 0.0983143
0.0531289, 0.379952, 0.098083
0.062806, 0.380057, 0.096736
0.0725011, 0.380228, 0.0945282
0.0822049, 0.380399, 0.0923166
0.09192, 0.380581, 0.0899682
0.101692, 0.380942, 0.0853176
0.111514, 0.38141, 0.079277
0.121347, 0.381837, 0.073761
0.131132, 0.382064, 0.0708385
0.140923, 0.382275, 0.0681171
0.150759, 0.382571, 0.0642943
0.160642, 0.382944, 0.0594893
0.170375, 0.382937, 0.0595765
0.180102, 0.382919, 0.0598049
0.189975, 0.383198, 0.0562043
0.199764, 0.383288, 0.0550513
0.209604, 0.383462, 0.0527992
0.218956, 0.382768, 0.0617547
0.228219, 0.381984, 0.0718675
0.237219, 0.380841, 0.0866189
0.246369, 0.38002, 0.0972085
0.255656, 0.379464, 0.104378
0.265042, 0.37909, 0.109205
0.274513, 0.37886, 0.112175
0.283999, 0.378665, 0.114689
0.293494, 0.378495, 0.116885
0.303007, 0.378357, 0.118659
0.312559, 0.378277, 0.119697
0.322276, 0.378394, 0.118192
0.332096, 0.378621, 0.115254
0.34206, 0.378996, 0.110425
0.352154, 0.37949, 0.104041
0.362324, 0.380038, 0.0969763
0.372358, 0.380417, 0.0920839
0.382577, 0.380963, 0.085042
0.393295, 0.381965, 0.0721135
-0.230222, 0.398398, 0.0286222
-0.219776, 0.397224, 0.0432777
-0.209165, 0.395629, 0.0631766
-0.198569, 0.39391, 0.0846329
-0.188443, 0.392992, 0.0960822
-0.178513, 0.392408, 0.103378
-0.168707, 0.392044, 0.107917
-0.158979, 0.391826, 0.110631
-0.149316, 0.391755, 0.111525
-0.139673, 0.391726, 0.111883
-0.130038, 0.391721, 0.111949
-0.120418, 0.391761, 0.111453
-0.110797, 0.391805, 0.110895
-0.101178, 0.391865, 0.110145
-0.0915876, 0.392059, 0.107726
-0.0819867, 0.39225, 0.105344
-0.0724048, 0.392595, 0.101047
-0.0627765, 0.392756, 0.0990357
-0.0531105, 0.392696, 0.099782
-0.0434477, 0.392638, 0.100504
-0.0337882, 0.392586, 0.10115
-0.0241312, 0.392534, 0.101798
-0.0144763, 0.392467, 0.102642
-0.00482441, 0.392384, 0.103672
0.00482349, 0.392309, 0.104611
0.014468, 0.392242, 0.105443
0.0241121, 0.392224, 0.105666
0.0337566, 0.39222, 0.105725
0.0434005, 0.392212, 0.105823
0.0530436, 0.392201, 0.105951
0.062697, 0.392258, 0.105246
0.0723638, 0.392372, 0.103817
0.0820379, 0.392495, 0.102284
0.0917252, 0.392648, 0.100374
0.101452, 0.392924, 0.0969353
0.111213, 0.393276, 0.0925465
0.121018, 0.393714, 0.0870833
0.130793, 0.393993, 0.0835958
0.140544, 0.394169, 0.0813951
0.150302, 0.394342, 0.079246
0.160064, 0.3945, 0.0772653
0.169768, 0.394508, 0.0771713
0.179451, 0.394469, 0.0776601
0.189122, 0.394408, 0.0784192
0.198769, 0.394306, 0.0796947
0.208378, 0.394141, 0.0817485
0.217942, 0.393909, 0.0846419
0.227449, 0.3936, 0.0885029
0.236844, 0.393129, 0.0943832
0.246157, 0.392564, 0.101425
0.255511, 0.392105, 0.107152
0.264977, 0.391845, 0.110397
0.274464, 0.391633, 0.113039
0.283965, 0.391455, 0.115263
0.293489, 0.391319, 0.116963
0.303015, 0.391194, 0.118525
0.312551, 0.391089, 0.119835
0.322249, 0.391188, 0.118594
0.331999, 0.391342, 0.116678
0.341917, 0.391679, 0.112466
0.35195, 0.392127, 0.106885
0.362169, 0.392752, 0.0990806
0.37229, 0.393242, 0.0929689
0.382398, 0.393693, 0.0873423
0.392738, 0.394354, 0.0790935
-0.229953, 0.410979, 0.0344424
-0.219319, 0.409395, 0.0535741
-0.208892, 0.408068, 0.0696087
-0.19851, 0.406703, 0.0861011
-0.188393, 0.405769, 0.0973887
-0.178544, 0.405343, 0.102543
-0.168738, 0.404971, 0.107035
-0.159033, 0.404812, 0.10895
-0.149345, 0.404675, 0.110603
-0.13968, 0.404591, 0.111626
-0.130043, 0.404577, 0.111798
-0.120411, 0.404582, 0.111737
-0.11079, 0.404626, 0.111202
-0.101174, 0.404696, 0.110357
-0.0915658, 0.404817, 0.108893
-0.0819602, 0.40498, 0.106922
-0.0723547, 0.405186, 0.104432
-0.0627362, 0.405372, 0.102183
-0.0530823, 0.405356, 0.102383
-0.0434199, 0.405252, 0.103633
-0.0337628, 0.405153, 0.104826
-0.0241107, 0.405059, 0.105963
-0.0144631, 0.404965, 0.107099
-0.00481992, 0.404872, 0.108232
0.00481881, 0.404778, 0.109362
0.014453, 0.404682, 0.110527
0.0240852, 0.404632, 0.111123
0.0337174, 0.404609, 0.111404
0.0433489, 0.404589, 0.111646
0.0529792, 0.404569, 0.11189
0.0626188, 0.404614, 0.111351
0.0722695, 0.404709, 0.110199
0.0819278, 0.40482, 0.10886
0.0915948, 0.404945, 0.107344
0.101295, 0.405179, 0.104521
0.111014, 0.405443, 0.10133
0.120748, 0.405712, 0.0980744
0.130458, 0.405869, 0.0961814
0.140137, 0.405914, 0.0956345
0.149818, 0.40596, 0.0950856
0.159518, 0.406046, 0.0940437
0.169183, 0.406039, 0.0941262
0.178844, 0.406025, 0.0942993
0.188512, 0.406026, 0.0942822
0.198198, 0.406063, 0.0938358
0.20787, 0.406072, 0.0937347
0.21751, 0.406019, 0.0943742
0.227139, 0.40595, 0.0951972
0.236605, 0.405608, 0.0993309
0.245975, 0.405135, 0.105045
0.255407, 0.404796, 0.109142
0.264912, 0.404593, 0.1116
0.274425, 0.404415, 0.113744
0.283961, 0.404283, 0.115343
0.293494, 0.404156, 0.116876
0.303032, 0.404042, 0.118251
0.312553, 0.403915, 0.119794
0.322219, 0.403976, 0.119055
0.331955, 0.404119, 0.11733
0.341853, 0.404445, 0.113383
0.351841, 0.404858, 0.108402
0.362049, 0.405495, 0.100696
0.372247, 0.406087, 0.093544
0.382349, 0.406548, 0.0879807
0.393247, 0.407811, 0.0727143
-0.24031, 0.425038, 0.0225916
-0.229515, 0.423219, 0.0438895
-0.218902, 0.42159, 0.0629735
-0.208611, 0.420457, 0.076241
-0.198388, 0.419358, 0.0891113
-0.188375, 0.41861, 0.0978661
-0.178543, 0.418209, 0.102563
-0.16882, 0.418029, 0.104666
-0.159092, 0.417818, 0.107138
-0.149391, 0.417653, 0.109072
-0.139717, 0.417546, 0.110324
-0.130077, 0.417532, 0.110486
-0.120445, 0.417542, 0.110368
-0.110811, 0.417547, 0.110311
-0.101186, 0.417594, 0.109768
-0.0915614, 0.417649, 0.109124
-0.0819459, 0.417764, 0.107779
-0.0723311, 0.417913, 0.106034
-0.0627114, 0.418076, 0.104123
-0.0530635, 0.418076, 0.104115
-0.0434055, 0.417978, 0.105266
-0.0337502, 0.417859, 0.106662
-0.0241005, 0.417743, 0.10802
-0.0144568, 0.417641, 0.109218
-0.00481777, 0.417538, 0.110415
0.00481651, 0.41743, 0.111688
0.0144458, 0.417321, 0.11296
0.0240719, 0.417248, 0.113821
0.0336958, 0.417186, 0.114543
0.0433184, 0.41714, 0.115084
0.0529406, 0.417108, 0.115453
0.0625711, 0.41714, 0.115075
0.0722104, 0.417216, 0.114195
0.0818525, 0.417288, 0.113352
0.091498, 0.417359, 0.112514
0.101174, 0.417545, 0.110341
0.110875, 0.417789, 0.107482
0.120588, 0.418039, 0.104554
0.130283, 0.418192, 0.102765
0.139961, 0.418274, 0.101796
0.149654, 0.418389, 0.100458
0.159357, 0.418514, 0.0989847
0.169041, 0.418578, 0.0982404
0.178729, 0.418645, 0.0974574
0.188431, 0.418735, 0.0963974
0.198112, 0.418773, 0.0959587
0.207717, 0.418655, 0.0973353
0.217374, 0.418646, 0.0974469
0.226966, 0.418519, 0.0989275
0.236371, 0.41807, 0.104184
0.245786, 0.417676, 0.1088
0.255277, 0.417434, 0.111635
0.264768, 0.417211, 0.114254
0.27433, 0.417109, 0.115441
0.28388, 0.416999, 0.116729
0.293431, 0.416897, 0.117931
0.303022, 0.416856, 0.118408
0.312568, 0.416757, 0.119567
0.322258, 0.416852, 0.118458
0.331988, 0.41699, 0.116838
0.341885, 0.417325, 0.112919
0.35184, 0.417709, 0.108411
0.362033, 0.41835, 0.100913
0.372259, 0.418993, 0.0933867
0.382393, 0.419503, 0.0874081
0.392873, 0.420358, 0.0774012
-0.240079, 0.437695, 0.0273752
-0.229112, 0.435476, 0.052588
-0.218641, 0.434044, 0.0688562
-0.208341, 0.432832, 0.082624
-0.198235, 0.431926, 0.0929127
-0.188319, 0.431364, 0.0993037
-0.178532, 0.43105, 0.102867
-0.168832, 0.430924, 0.104295
-0.159138, 0.430799, 0.105724
-0.149452, 0.430678, 0.107099
-0.139774, 0.430567, 0.108352
-0.130122, 0.430528, 0.1088
-0.120485, 0.430532, 0.108751
-0.110846, 0.430533, 0.108737
-0.10121, 0.430542, 0.108637
-0.0915762, 0.430569, 0.108334
-0.0819452, 0.430614, 0.107819
-0.0723199, 0.430705, 0.106791
-0.0627013, 0.430871, 0.104906
-0.0530549, 0.430871, 0.104905
-0.0433986, 0.43077, 0.106043
-0.033744, 0.430638, 0.107552
-0.0240954, 0.430505, 0.109059
-0.0144529, 0.430372, 0.110569
-0.00481616, 0.430242, 0.112051
0.00481475, 0.430116, 0.113481
0.0144401, 0.429994, 0.114869
0.0240619, 0.429907, 0.115858
0.0336811, 0.429834, 0.116679
0.0432971, 0.429763, 0.117491
0.0529101, 0.429694, 0.11827
0.0625314, 0.429703, 0.118174
0.072161, 0.429758, 0.11754
0.0817947, 0.429823, 0.116803
0.0914321, 0.429891, 0.11603
0.1011, 0.430074, 0.113956
0.110785, 0.430294, 0.111459
0.120481, 0.430517, 0.108919
0.130178, 0.430714, 0.106689
0.139871, 0.430866, 0.104961
0.149564, 0.431001, 0.103426
0.159262, 0.431133, 0.101926
0.168961, 0.431252, 0.100572
0.178655, 0.431347, 0.0994878
0.188343, 0.431418, 0.0986867
0.197949, 0.431304, 0.0999818
0.207575, 0.431242, 0.10069
0.217219, 0.431219, 0.100944
0.226772, 0.431027, 0.103126
0.236186, 0.430598, 0.108002
0.245669, 0.430323, 0.111132
0.255141, 0.430049, 0.114235
0.264676, 0.429897, 0.115962
0.274236, 0.429796, 0.117112
0.283795, 0.4297, 0.118203
0.293379, 0.429647, 0.118804
0.302978, 0.429619, 0.119123
0.312584, 0.429603, 0.119311
0.322288, 0.429717, 0.118011
0.332019, 0.42986, 0.116385
0.341904, 0.430189, 0.112655
0.351848, 0.430571, 0.108305
0.362038, 0.431228, 0.10085
0.372291, 0.431922, 0.0929651
0.382441, 0.432465, 0.0867963
0.392789, 0.433199, 0.0784507
-0.250886, 0.452578, 0.0073247
-0.239846, 0.450323, 0.0321989
-0.228888, 0.448037, 0.0574231
-0.218433, 0.446574, 0.0735602
-0.208134, 0.44531, 0.0875092
-0.198141, 0.444609, 0.0952373
-0.188278, 0.444144, 0.100366
-0.178526, 0.443902, 0.103031
-0.168812, 0.443735, 0.104874
-0.159166, 0.443736, 0.104872
-0.149513, 0.443716, 0.105086
-0.139833, 0.443607, 0.106287
-0.130169, 0.443538, 0.107053
-0.120528, 0.443543, 0.106997
-0.110887, 0.44355, 0.106919
-0.101246, 0.443554, 0.106871
-0.0916015, 0.443544, 0.106983
-0.081958, 0.443538, 0.107053
-0.0723306, 0.443628, 0.106063
-0.0627109, 0.4438, 0.104161
-0.0530589, 0.443766, 0.104538
-0.0434005, 0.443649, 0.105824
-0.0337433, 0.443483, 0.107661
-0.0240934, 0.44332, 0.109461
-0.0144513, 0.44317, 0.111107
-0.00481552, 0.443026, 0.112701
0.00481394, 0.442881, 0.114305
0.0144375, 0.442748, 0.115763
0.0240574, 0.442656, 0.116781
0.033674, 0.442572, 0.117704
0.0432867, 0.442486, 0.11866
0.0528954, 0.442399, 0.119621
0.0625105, 0.442382, 0.119805
0.0721329, 0.442415, 0.119442
0.0817573, 0.442452, 0.119034
0.0913842, 0.442492, 0.118591
0.101038, 0.442644, 0.116918
0.110711, 0.442846, 0.114687
0.120394, 0.443051, 0.112424
0.130083, 0.443246, 0.110272
0.139773, 0.443419, 0.108365
0.14947, 0.443589, 0.106487
0.159168, 0.443741, 0.10481
0.168865, 0.443874, 0.103349
0.178569, 0.444011, 0.101836
0.188212, 0.443988, 0.102082
0.197805, 0.443855, 0.103553
0.207432, 0.443809, 0.104061
0.21705, 0.443747, 0.104744
0.226566, 0.443491, 0.107566
0.236053, 0.443202, 0.110761
0.245575, 0.442997, 0.113016
0.255088, 0.442795, 0.115247
0.264651, 0.44269, 0.116408
0.274215, 0.442593, 0.117479
0.283791, 0.442521, 0.118272
0.293393, 0.442494, 0.118567
0.303001, 0.442477, 0.118756
0.31266, 0.442535, 0.11812
0.322374, 0.442662, 0.116711
0.332121, 0.442829, 0.114878
0.342015, 0.443174, 0.111068
0.351977, 0.443587, 0.106511
0.362187, 0.444283, 0.0988359
0.372434, 0.444986, 0.0910802
0.382597, 0.445556, 0.0847936
0.392954, 0.446318, 0.0763874
-0.250447, 0.464881, 0.0160604
-0.239718, 0.463129, 0.0348434
-0.228837, 0.460919, 0.058537
-0.218315, 0.459269, 0.0762296
-0.208069, 0.458074, 0.0890446
-0.198081, 0.457357, 0.0967312
-0.18827, 0.456997, 0.100588
-0.178523, 0.456761, 0.103113
-0.168825, 0.45663, 0.104523
-0.159172, 0.456614, 0.10469
-0.149542, 0.456665, 0.10415
-0.139891, 0.456657, 0.104229
-0.130226, 0.456595, 0.104893
-0.120576, 0.456581, 0.105046
-0.110932, 0.45659, 0.104949
-0.101287, 0.456597, 0.104872
-0.091642, 0.456602, 0.104821
-0.0819913, 0.456579, 0.105067
-0.0723561, 0.456647, 0.104336
-0.0627312, 0.456812, 0.102571
-0.05307, 0.456724, 0.103514
-0.0434078, 0.456585, 0.105002
-0.0337485, 0.456408, 0.106901
-0.024097, 0.456237, 0.108736
-0.0144531, 0.456074, 0.110488
-0.00481615, 0.455927, 0.112061
0.00481456, 0.455777, 0.113671
0.0144387, 0.45562, 0.11535
0.024058, 0.455499, 0.116647
0.0336731, 0.455388, 0.117836
0.0432837, 0.45528, 0.118998
0.0528901, 0.455176, 0.120113
0.0625023, 0.455145, 0.120444
0.0721202, 0.455158, 0.1203
0.0817384, 0.455171, 0.120166
0.0913599, 0.455197, 0.119888
0.101011, 0.455349, 0.118254
0.110676, 0.455538, 0.116233
0.12035, 0.455726, 0.114214
0.13003, 0.455907, 0.112268
0.139715, 0.456081, 0.110412
0.149407, 0.456253, 0.108564
0.159105, 0.456422, 0.106748
0.168806, 0.456579, 0.105072
0.178505, 0.456716, 0.103602
0.188108, 0.456604, 0.104796
0.1977, 0.456478, 0.106153
0.20732, 0.456425, 0.106722
0.21692, 0.456335, 0.10768
0.226431, 0.456073, 0.110489
0.236006, 0.455957, 0.111738
0.245535, 0.455765, 0.113796
0.255088, 0.455628, 0.115261
0.264653, 0.455525, 0.116374
0.274218, 0.455427, 0.117423
0.283831, 0.455413, 0.117571
0.293447, 0.455403, 0.117673
0.30307, 0.455407, 0.117635
0.312765, 0.455515, 0.11648
0.32248, 0.455644, 0.115094
0.332264, 0.45586, 0.11278
0.342169, 0.456226, 0.108859
0.352136, 0.456651, 0.104292
0.362354, 0.457371, 0.0965776
0.372597, 0.458085, 0.0889263
0.382783, 0.458694, 0.0823946
0.393149, 0.459482, 0.0739417
-0.250525, 0.478125, 0.0145111
-0.239759, 0.476256, 0.0340056
-0.229006, 0.474254, 0.0548797
-0.218378, 0.472345, 0.0747871
-0.208069, 0.470978, 0.0890336
-0.19812, 0.470333, 0.0957584
-0.188284, 0.469905, 0.100226
-0.178542, 0.469678, 0.102594
-0.168854, 0.469575, 0.103665
-0.159185, 0.469514, 0.104298
-0.149562, 0.469593, 0.103477
-0.139942, 0.469692, 0.102444
-0.130293, 0.469698, 0.102386
-0.120628, 0.469646, 0.102925
-0.110977, 0.469642, 0.102971
-0.101328, 0.469649, 0.10289
-0.09168, 0.469659, 0.102791
-0.0820305, 0.469665, 0.102726
-0.0723939, 0.469756, 0.101784
-0.0627574, 0.469876, 0.10053
-0.0530899, 0.469765, 0.101681
-0.0434242, 0.469625, 0.103149
-0.0337617, 0.469448, 0.10499
-0.0241059, 0.469262, 0.10693
-0.0144579, 0.469077, 0.108863
-0.0048177, 0.468921, 0.110484
0.00481602, 0.468758, 0.112189
0.0144431, 0.468596, 0.113873
0.0240656, 0.468478, 0.115102
0.0336841, 0.468369, 0.116241
0.0432979, 0.468259, 0.117393
0.0529071, 0.468148, 0.118543
0.0625205, 0.468102, 0.119021
0.0721389, 0.468101, 0.119035
0.0817566, 0.468097, 0.119077
0.0913743, 0.468093, 0.119118
0.101015, 0.468197, 0.11804
0.110668, 0.468334, 0.11661
0.120331, 0.468488, 0.114998
0.130002, 0.468649, 0.113317
0.139682, 0.468818, 0.111555
0.14937, 0.46899, 0.109763
0.159065, 0.469162, 0.107972
0.16877, 0.469342, 0.106098
0.178451, 0.469439, 0.105088
0.188028, 0.469267, 0.106881
0.197627, 0.469163, 0.107963
0.207254, 0.469132, 0.108283
0.216832, 0.469001, 0.109656
0.226348, 0.468748, 0.112288
0.235945, 0.468679, 0.113009
0.245536, 0.468605, 0.113781
0.255093, 0.468474, 0.115151
0.264641, 0.468334, 0.116601
0.274239, 0.468291, 0.117052
0.283873, 0.46831, 0.116854
0.293496, 0.46831, 0.116857
0.303155, 0.468366, 0.116274
0.312869, 0.468502, 0.114857
0.322596, 0.468647, 0.113341
0.332441, 0.46895, 0.110182
0.342349, 0.469323, 0.106294
0.352323, 0.469764, 0.101699
0.362542, 0.4705, 0.0940261
0.37278, 0.47122, 0.0865154
0.383027, 0.471915, 0.0792713
0.393481, 0.472825, 0.0697832
0.404789, 0.474692, 0.0503097
-0.25029, 0.490765, 0.0191708
-0.239838, 0.489466, 0.0323563
-0.229274, 0.487817, 0.0490923
-0.218572, 0.485716, 0.070416
-0.208221, 0.484235, 0.0854483
-0.198177, 0.483358, 0.0943475
-0.188355, 0.48296, 0.0983863
-0.1786, 0.482704, 0.100989
-0.168895, 0.482558, 0.102473
-0.159227, 0.482507, 0.102986
-0.14962, 0.482644, 0.101596
-0.139977, 0.482679, 0.101244
-0.130343, 0.482751, 0.100513
-0.120685, 0.482742, 0.100606
-0.111024, 0.482713, 0.100893
-0.10137, 0.482715, 0.100872
-0.0917205, 0.482739, 0.100627
-0.0820727, 0.482781, 0.100208
-0.0724346, 0.482897, 0.0990276
-0.0627956, 0.483043, 0.0975451
-0.0531227, 0.482934, 0.0986562
-0.0434516, 0.482795, 0.10006
-0.033782, 0.482599, 0.102052
-0.0241197, 0.482395, 0.104122
-0.0144663, 0.482207, 0.106032
-0.00482053, 0.482052, 0.107608
0.00481892, 0.48189, 0.109249
0.0144517, 0.481722, 0.110951
0.0240795, 0.481591, 0.11228
0.0337037, 0.481481, 0.113404
0.0433232, 0.481368, 0.114546
0.0529375, 0.481251, 0.115737
0.0625544, 0.481188, 0.116375
0.0721747, 0.481164, 0.116613
0.0817936, 0.481139, 0.116868
0.0914127, 0.48112, 0.117067
0.101053, 0.481205, 0.116197
0.110705, 0.481324, 0.114991
0.120363, 0.481454, 0.113677
0.13003, 0.481591, 0.112285
0.139702, 0.481732, 0.110851
0.149385, 0.481886, 0.109288
0.159079, 0.482056, 0.107559
0.168782, 0.482235, 0.105748
0.17844, 0.48227, 0.105393
0.188024, 0.482113, 0.106983
0.197647, 0.482066, 0.107465
0.207273, 0.48203, 0.107828
0.216819, 0.481819, 0.109966
0.226336, 0.481566, 0.11254
0.235926, 0.481481, 0.113402
0.245517, 0.481406, 0.114161
0.255068, 0.48126, 0.115643
0.264628, 0.481142, 0.116835
0.274261, 0.481159, 0.116668
0.283899, 0.481184, 0.116409
0.293549, 0.481228, 0.115966
0.303263, 0.48137, 0.114528
0.312993, 0.481527, 0.112927
0.322749, 0.481715, 0.111028
0.332623, 0.482062, 0.107499
0.342524, 0.482427, 0.103793
0.352516, 0.482899, 0.0990086
0.362713, 0.483618, 0.0917125
0.372957, 0.48436, 0.0841794
0.383247, 0.485123, 0.0764389
0.393882, 0.486274, 0.0647511
0.40521, 0.488205, 0.0451608
-0.260719, 0.50504, 0.00743246
-0.250222, 0.503715, 0.0205259
-0.239887, 0.50262, 0.0313582
-0.229585, 0.501504, 0.042387
-0.218934, 0.499494, 0.062254
-0.208462, 0.497723, 0.0797672
-0.198405, 0.496819, 0.0887027
-0.188482, 0.496175, 0.0950618
-0.178712, 0.495886, 0.0979199
-0.169017, 0.495782, 0.0989513
-0.159295, 0.495583, 0.100921
-0.14968, 0.495715, 0.0996103
-0.14005, 0.495809, 0.0986843
-0.130386, 0.495789, 0.0988851
-0.120735, 0.495817, 0.098608
-0.111081, 0.495838, 0.098392
-0.101424, 0.495851, 0.0982676
-0.091777, 0.495918, 0.0976062
-0.0821316, 0.49601, 0.096693
-0.0724898, 0.496152, 0.0952959
-0.0628511, 0.496363, 0.0932093
-0.0531744, 0.496294, 0.0938873
-0.0434938, 0.496151, 0.0953026
-0.0338145, 0.495946, 0.0973287
-0.0241434, 0.495745, 0.0993195
-0.0144808, 0.495562, 0.10112
-0.00482525, 0.49539, 0.102825
0.00482347, 0.495207, 0.10463
0.0144652, 0.495029, 0.106399
0.0241015, 0.494884, 0.107824
0.033733, 0.49475, 0.109151
0.0433592, 0.494616, 0.110478
0.0529802, 0.494482, 0.111802
0.062602, 0.494395, 0.112664
0.0722268, 0.494352, 0.113086
0.0818508, 0.494315, 0.113452
0.0914741, 0.494281, 0.113791
0.101115, 0.49434, 0.113205
0.110766, 0.494435, 0.11227
0.120423, 0.494538, 0.111249
0.130086, 0.494647, 0.110166
0.139757, 0.494773, 0.108928
0.149437, 0.49491, 0.107574
0.159125, 0.495055, 0.106134
0.168833, 0.495243, 0.104281
0.178465, 0.4952, 0.104701
0.188064, 0.495073, 0.105956
0.197701, 0.495056, 0.106132
0.207298, 0.494943, 0.107242
0.216809, 0.494646, 0.110183
0.226351, 0.49444, 0.112218
0.235929, 0.494327, 0.113338
0.245487, 0.494184, 0.114749
0.255031, 0.494022, 0.116344
0.264626, 0.493969, 0.116877
0.274269, 0.494006, 0.116512
0.283918, 0.494049, 0.116078
0.293603, 0.494152, 0.115068
0.303359, 0.494363, 0.112982
0.313108, 0.49455, 0.11113
0.322896, 0.494786, 0.108797
0.3328, 0.495181, 0.104895
0.342709, 0.495561, 0.101136
0.352771, 0.496134, 0.0954738
0.362944, 0.49683, 0.0885901
0.373196, 0.497594, 0.0810361
0.383537, 0.498436, 0.0727134
0.394351, 0.499836, 0.0588741
-0.260444, 0.517611, 0.0126977
-0.250167, 0.516684, 0.0216331
-0.239946, 0.515803, 0.0301256
-0.229772, 0.514951, 0.038332
-0.219516, 0.51383, 0.0491304
-0.208972, 0.5119, 0.0677266
-0.198708, 0.510501, 0.0812111
-0.188714, 0.50969, 0.0890207
-0.178872, 0.509222, 0.0935335
-0.169166, 0.509109, 0.0946188
-0.159449, 0.508949, 0.0961576
-0.14977, 0.508896, 0.0966692
-0.140128, 0.508971, 0.0959525
-0.130463, 0.508965, 0.0960093
-0.120817, 0.509042, 0.0952697
-0.111161, 0.509085, 0.094852
-0.101489, 0.509054, 0.0951524
-0.0918332, 0.50911, 0.0946083
-0.0821903, 0.509258, 0.0931878
-0.0725564, 0.509507, 0.0907898
-0.0629219, 0.509829, 0.0876865
-0.0532381, 0.509796, 0.0880032
-0.0435519, 0.509718, 0.0887547
-0.0338613, 0.509531, 0.0905495
-0.0241783, 0.509357, 0.0922279
-0.0145022, 0.509188, 0.0938616
-0.00483255, 0.509027, 0.0954118
0.0048309, 0.508853, 0.0970874
0.0144871, 0.508657, 0.098979
0.0241358, 0.508462, 0.100852
0.033778, 0.508279, 0.102619
0.0434133, 0.508096, 0.10438
0.0530429, 0.507926, 0.106019
0.0626725, 0.507808, 0.10716
0.0723023, 0.507723, 0.107978
0.08193, 0.507645, 0.108727
0.0915598, 0.507595, 0.10921
0.101205, 0.507631, 0.108859
0.110857, 0.507691, 0.108279
0.120511, 0.507754, 0.107679
0.130172, 0.50783, 0.106944
0.139841, 0.507928, 0.105997
0.149518, 0.50804, 0.104916
0.15921, 0.508184, 0.103528
0.168902, 0.508315, 0.102268
0.178519, 0.508217, 0.103212
0.18813, 0.508111, 0.104233
0.197765, 0.508079, 0.104547
0.207314, 0.507838, 0.106862
0.216829, 0.50754, 0.109738
0.226384, 0.507357, 0.111499
0.235947, 0.507206, 0.112954
0.245498, 0.507041, 0.114545
0.255068, 0.506928, 0.115638
0.264697, 0.506935, 0.115571
0.274334, 0.506956, 0.115366
0.283977, 0.506986, 0.115072
0.293698, 0.507152, 0.113481
0.30346, 0.507373, 0.111351
0.313231, 0.507595, 0.109207
0.323079, 0.507926, 0.106023
0.332991, 0.508334, 0.102092
0.342939, 0.508773, 0.097858
0.35305, 0.509424, 0.0915875
0.363228, 0.510134, 0.0847478
0.37353, 0.510976, 0.0766335
0.383995, 0.511993, 0.0668359
0.395185, 0.513904, 0.0484228
-0.260401, 0.530627, 0.0135245
-0.250132, 0.529691, 0.0223212
-0.24, 0.52898, 0.029006
-0.22994, 0.528372, 0.034718
-0.219798, 0.527514, 0.0427785
-0.209653, 0.52657, 0.0516577
-0.199339, 0.525088, 0.0655789
-0.189203, 0.523946, 0.0763149
-0.179287, 0.523325, 0.0821495
-0.169438, 0.522838, 0.0867214
-0.159731, 0.522756, 0.0874991
-0.150015, 0.522633, 0.0886493
-0.140307, 0.522524, 0.0896788
-0.130617, 0.522468, 0.0902028
-0.120922, 0.522385, 0.0909796
-0.111251, 0.522398, 0.0908575
-0.101568, 0.522351, 0.0913019
-0.091906, 0.522413, 0.0907202
-0.0822653, 0.522627, 0.0887117
-0.0726296, 0.522932, 0.0858359
-0.0629973, 0.523362, 0.0818019
-0.053314, 0.523447, 0.0810027
-0.0436186, 0.523422, 0.0812354
-0.0339208, 0.523349, 0.0819187
-0.0242229, 0.523215, 0.0831795
-0.0145287, 0.523031, 0.0849094
-0.00484146, 0.522876, 0.0863695
0.00483984, 0.522701, 0.0880103
0.0145139, 0.5225, 0.0899038
0.0241807, 0.522303, 0.0917482
0.0338403, 0.522107, 0.0935898
0.043492, 0.521903, 0.0955124
0.053136, 0.521699, 0.0974312
0.0627772, 0.521533, 0.0989838
0.0724187, 0.521414, 0.100104
0.0820555, 0.521294, 0.101232
0.0916882, 0.521175, 0.10235
0.101333, 0.521143, 0.102655
0.110985, 0.521148, 0.102608
0.120642, 0.521175, 0.102349
0.130296, 0.521184, 0.102266
0.139956, 0.521216, 0.101967
0.149632, 0.521297, 0.101203
0.159304, 0.521359, 0.100624
0.168995, 0.521471, 0.0995688
0.178618, 0.521372, 0.100496
0.188246, 0.521297, 0.101204
0.197836, 0.521128, 0.102789
0.207327, 0.520728, 0.106554
0.216866, 0.520478, 0.108901
0.226427, 0.520301, 0.110566
0.236005, 0.520174, 0.111755
0.245588, 0.520068, 0.112758
0.255197, 0.520024, 0.113167
0.264841, 0.520052, 0.112906
0.274489, 0.520085, 0.112593
0.284152, 0.520143, 0.112051
0.2939, 0.520348, 0.11012
0.303673, 0.520582, 0.107921
0.313465, 0.520833, 0.105563
0.323352, 0.521223, 0.101899
0.333283, 0.52166, 0.0977902
0.343307, 0.522214, 0.0925889
0.353484, 0.522962, 0.0855594
0.363725, 0.523764, 0.0780172
0.374107, 0.524722, 0.0690241
0.384824, 0.526088, 0.0561833
0.396746, 0.528995, 0.0288658
-0.26073, 0.544418, 0.00721216
-0.250211, 0.542941, 0.0207543
-0.240062, 0.542181, 0.0277257
-0.230037, 0.541647, 0.0326233
-0.219953, 0.540921, 0.0392785
-0.209945, 0.540323, 0.0447612
-0.199934, 0.539658, 0.0508637
-0.18993, 0.538945, 0.0574002
-0.179947, 0.53822, 0.0640545
-0.170022, 0.537594, 0.0697918
-0.160129, 0.536999, 0.0752482
-0.150356, 0.536753, 0.0775023
-0.140644, 0.53671, 0.0778999
-0.130926, 0.536633, 0.0786018
-0.121186, 0.536448, 0.0802994
-0.111418, 0.536097, 0.083519
-0.101698, 0.53593, 0.0850534
-0.0920125, 0.535932, 0.0850296
-0.0823463, 0.536059, 0.0838728
-0.0727036, 0.536391, 0.0808244
-0.0630664, 0.536873, 0.0764055
-0.0533802, 0.537037, 0.0748978
-0.0436825, 0.537133, 0.0740209
-0.0339737, 0.537107, 0.0742555
-0.0242637, 0.537037, 0.0748997
-0.0145561, 0.536957, 0.0756373
-0.00485108, 0.536851, 0.0766053
0.00484988, 0.536718, 0.0778232
0.0145458, 0.536578, 0.0791121
0.024235, 0.536403, 0.0807176
0.0339163, 0.536201, 0.0825663
0.0435898, 0.535993, 0.0844784
0.0532544, 0.535771, 0.0865059
0.0629111, 0.535551, 0.0885305
0.0725653, 0.53537, 0.0901871
0.0822133, 0.535192, 0.0918169
0.0918573, 0.535028, 0.0933213
0.10151, 0.534943, 0.0941052
0.111169, 0.534902, 0.0944762
0.120831, 0.534878, 0.0946999
0.130488, 0.53484, 0.0950508
0.140138, 0.53478, 0.0955954
0.149787, 0.534723, 0.0961208
0.159448, 0.534713, 0.0962105
0.169114, 0.534721, 0.096138
0.178739, 0.534607, 0.0971813
0.18837, 0.534519, 0.0979929
0.197867, 0.534079, 0.102024
0.207358, 0.533665, 0.105827
0.216909, 0.533435, 0.107933
0.226553, 0.533443, 0.107862
0.236163, 0.533376, 0.108478
0.245741, 0.533242, 0.109701
0.255375, 0.533235, 0.109768
0.265021, 0.533255, 0.109588
0.274672, 0.533282, 0.109341
0.284369, 0.533393, 0.108317
0.294146, 0.533643, 0.106028
0.303934, 0.533895, 0.103711
0.313767, 0.534208, 0.100843
0.3237, 0.534668, 0.0966249
0.333669, 0.535161, 0.0921087
0.343807, 0.535887, 0.0854454
0.354023, 0.536692, 0.0780602
0.364368, 0.537645, 0.069324
0.374938, 0.538872, 0.0580745
0.386137, 0.540917, 0.0393143
0.398181, 0.544017, 0.0108852
-0.250337, 0.556303, 0.0182514
-0.240151, 0.555451, 0.0258822
-0.230086, 0.554818, 0.0315509
-0.220046, 0.554189, 0.03719
-0.210009, 0.553511, 0.0432553
-0.20009, 0.553093, 0.0470009
-0.190186, 0.552676, 0.0507355
-0.180329, 0.552359, 0.0535779
-0.170488, 0.552056, 0.0562892
-0.160672, 0.551802, 0.0585589
-0.150847, 0.551485, 0.0613976
-0.141081, 0.55135, 0.0626097
-0.13132, 0.551218, 0.0637894
-0.121554, 0.551047, 0.0653243
-0.111767, 0.550735, 0.0681205
-0.101983, 0.550385, 0.0712538
-0.0921959, 0.54994, 0.0752358
-0.0824539, 0.549693, 0.0774527
-0.0727779, 0.549877, 0.075799
-0.0631292, 0.550357, 0.0715055
-0.053442, 0.550615, 0.0691934
-0.0437368, 0.550759, 0.0679016
-0.0340217, 0.550827, 0.0672965
-0.0243001, 0.550802, 0.0675197
-0.0145807, 0.550824, 0.0673237
-0.00486059, 0.550865, 0.0669513
0.00486004, 0.550802, 0.0675154
0.014578, 0.550722, 0.0682302
0.0242947, 0.55068, 0.0686107
0.0340051, 0.550558, 0.0696988
0.0437004, 0.550301, 0.0720034
0.0533869, 0.550047, 0.074276
0.0630671, 0.549816, 0.0763497
0.0727413, 0.549601, 0.0782757
0.0824081, 0.549388, 0.080183
0.09207, 0.549189, 0.0819597
0.101733, 0.549036, 0.0833287
0.111399, 0.548922, 0.0843525
0.121069, 0.548845, 0.085041
0.130717, 0.548689, 0.0864429
0.14036, 0.548533, 0.0878396
0.150001, 0.54839, 0.0891151
0.159645, 0.548277, 0.0901265
0.169282, 0.548152, 0.0912485
0.178892, 0.547959, 0.092977
0.188475, 0.547704, 0.0952635
0.197886, 0.547, 0.10156
0.207399, 0.546634, 0.10484
0.216986, 0.546484, 0.106187
0.226671, 0.546583, 0.105297
0.23634, 0.546636, 0.104823
0.245952, 0.546559, 0.105512
0.255609, 0.546585, 0.105279
0.265274, 0.546626, 0.104914
0.274951, 0.546686, 0.104374
0.284708, 0.546897, 0.102486
0.294496, 0.547151, 0.100215
0.30429, 0.5474, 0.0979781
0.314187, 0.547812, 0.0942888
0.324133, 0.548285, 0.0900545
0.334215, 0.548951, 0.0840902
0.344428, 0.54979, 0.0765758
0.354757, 0.550764, 0.0678573
0.365252, 0.551936, 0.0573583
0.376136, 0.553621, 0.0422759
0.387489, 0.555892, 0.0219374
0.398202, 0.557156, 0.0106192
0.408435, 0.557703, 0.00571823
-0.378329, 0.56995, 0.0133743
-0.368798, 0.570407, 0.00937748
-0.358768, 0.570096, 0.0120969
-0.349377, 0.570814, 0.00582218
-0.250571, 0.569926, 0.0135856
-0.24022, 0.568685, 0.0244441
-0.230154, 0.568041, 0.0300841
-0.220093, 0.56735, 0.036128
-0.209991, 0.566488, 0.0436683
-0.200065, 0.566037, 0.0476141
-0.190228, 0.565805, 0.0496445
-0.180415, 0.565626, 0.0512137
-0.170612, 0.565456, 0.0526967
-0.16082, 0.565306, 0.0540104
-0.151027, 0.565132, 0.0555301
-0.14125, 0.565001, 0.0566783
-0.131495, 0.564943, 0.057188
-0.121744, 0.564892, 0.057632
-0.112027, 0.565008, 0.0566206
-0.102292, 0.565041, 0.0563273
-0.0925037, 0.56476, 0.0587907
-0.0827022, 0.564322, 0.0626225
-0.0729107, 0.563843, 0.0668125
-0.0631895, 0.563845, 0.0667953
-0.0535027, 0.56421, 0.0635967
-0.0437919, 0.564428, 0.0616918
-0.0340741, 0.564656, 0.0596957
-0.0243461, 0.564831, 0.0581689
-0.0146124, 0.565012, 0.0565782
-0.00487297, 0.565262, 0.0543957
0.00487497, 0.565494, 0.0523663
0.0146246, 0.565481, 0.0524755
0.0243701, 0.565387, 0.0533009
0.0341124, 0.56529, 0.0541472
0.0438437, 0.565096, 0.0558476
0.0535619, 0.564835, 0.0581303
0.0632673, 0.564539, 0.0607176
0.0729627, 0.564244, 0.0632987
0.0826513, 0.563974, 0.0656624
0.0923353, 0.563731, 0.0677876
0.102012, 0.563493, 0.069869
0.111685, 0.563283, 0.0717082
0.121354, 0.563081, 0.0734744
0.131008, 0.562849, 0.0755048
0.140652, 0.56261, 0.0776005
0.150291, 0.562378, 0.0796247
0.1599, 0.562074, 0.0822845
0.169483, 0.561715, 0.0854244
0.179087, 0.561461, 0.087647
0.188674, 0.561186, 0.0900598
0.198079, 0.560419, 0.0967665
0.207614, 0.560074, 0.0997853
0.217228, 0.559966, 0.100729
0.226886, 0.559973, 0.100669
0.236549, 0.559995, 0.100479
0.24622, 0.56003, 0.10017
0.255894, 0.56007, 0.099822
0.265569, 0.560109, 0.0994773
0.275276, 0.560211, 0.0985827
0.285068, 0.560473, 0.0962968
0.294871, 0.560738, 0.0939722
0.304729, 0.561089, 0.0909033
0.314677, 0.561578, 0.0866303
0.324693, 0.562154, 0.0815859
0.334893, 0.563008, 0.0741153
0.345238, 0.56405, 0.0649977
0.355734, 0.565275, 0.0542793
0.3663, 0.566544, 0.0431757
0.377371, 0.568507, 0.0260057
0.388012, 0.56974, 0.0152197
0.397944, 0.569895, 0.0138626
0.407942, 0.570135, 0.0117569
0.418066, 0.570537, 0.00824547
-0.387923, 0.582703, 0.0163636
-0.377848, 0.582311, 0.0197182
-0.368122, 0.58245, 0.0185246
-0.358264, 0.582383, 0.0191002
-0.348764, 0.582911, 0.0145888
-0.339752, 0.584308, 0.00264168
-0.250752, 0.58345, 0.00997734
-0.240342, 0.582052, 0.0219288
-0.230211, 0.581242, 0.0288639
-0.220038, 0.580247, 0.0373697
-0.209945, 0.579384, 0.0447521
-0.200059, 0.579033, 0.0477486
-0.190251, 0.578883, 0.0490394
-0.180463, 0.578783, 0.0498948
-0.170678, 0.578679, 0.0507779
-0.160892, 0.578563, 0.0517759
-0.151111, 0.578444, 0.0527859
-0.141335, 0.578335, 0.0537233
-0.131573, 0.578272, 0.054265
-0.121833, 0.578301, 0.0540161
-0.112133, 0.578542, 0.0519514
-0.102462, 0.578991, 0.0481091
-0.0927569, 0.579324, 0.0452652
-0.0829801, 0.579234, 0.0460334
-0.073178, 0.578919, 0.0487318
-0.0633792, 0.578538, 0.0519857
-0.0536143, 0.578385, 0.0532947
-0.0438824, 0.578597, 0.0514841
-0.0341544, 0.578999, 0.0480437
-0.024412, 0.57938, 0.0447888
-0.0146548, 0.579678, 0.0422401
-0.00488759, 0.579992, 0.0395546
0.00489085, 0.580378, 0.0362468
0.014681, 0.580714, 0.0333734
0.0244709, 0.580777, 0.0328379
0.0342534, 0.580676, 0.0337043
0.0440318, 0.580567, 0.0346346
0.0537967, 0.580352, 0.036468
0.0635456, 0.580058, 0.03899
0.0732854, 0.579768, 0.0414648
0.0830098, 0.579441, 0.0442605
0.0927123, 0.579045, 0.0476465
0.102401, 0.578646, 0.0510664
0.112077, 0.578254, 0.0544195
0.121747, 0.577895, 0.0574889
0.131405, 0.577531, 0.0605965
0.141044, 0.577146, 0.0638947
0.150675, 0.576777, 0.0670452
0.160282, 0.576368, 0.0705485
0.16988, 0.575974, 0.0739136
0.179466, 0.575583, 0.0772557
0.189074, 0.575303, 0.0796556
0.198573, 0.574732, 0.0845356
0.208021, 0.574072, 0.0901799
0.217611, 0.573848, 0.0920939
0.227265, 0.573803, 0.0924807
0.236942, 0.573818, 0.0923576
0.246625, 0.573846, 0.0921121
0.25631, 0.573877, 0.0918512
0.265995, 0.573904, 0.0916209
0.275753, 0.574082, 0.0901003
0.285565, 0.574357, 0.0877409
0.295425, 0.574706, 0.0847569
0.305368, 0.57519, 0.0806222
0.315365, 0.575742, 0.0758972
0.325615, 0.576712, 0.0676074
0.335989, 0.577837, 0.0579853
0.34647, 0.579077, 0.0473785
0.357101, 0.580492, 0.035274
0.367673, 0.58174, 0.0246029
0.378299, 0.583006, 0.0137711
0.388562, 0.583662, 0.00816393
0.398051, 0.583153, 0.0125189
0.407689, 0.582881, 0.0148463
0.41758, 0.582975, 0.0140409
0.427778, 0.583483, 0.00969601
0.437941, 0.583921, 0.00594711
-0.397907, 0.596042, 0.0143189
-0.387664, 0.595399, 0.0196953
-0.377713, 0.595185, 0.021493
-0.367797, 0.595013, 0.0229244
-0.358183, 0.595336, 0.020227
-0.348325, 0.595259, 0.0208669
-0.339146, 0.596372, 0.0115585
-0.329614, 0.596913, 0.00703526
-0.250623, 0.596253, 0.012558
-0.240346, 0.595144, 0.0218339
-0.230224, 0.594337, 0.0285788
-0.220009, 0.593209, 0.0380168
-0.209933, 0.592369, 0.0450444
-0.200082, 0.592112, 0.0471892
-0.190293, 0.592023, 0.0479417
-0.180521, 0.591979, 0.0483065
-0.170748, 0.591927, 0.048737
-0.160962, 0.59182, 0.0496359
-0.151181, 0.59172, 0.0504742
-0.141403, 0.591619, 0.0513196
-0.131638, 0.591558, 0.0518284
-0.121911, 0.591673, 0.050868
-0.112219, 0.591994, 0.0481782
-0.102549, 0.592506, 0.0439
-0.0928919, 0.593204, 0.0380569
-0.0832058, 0.593862, 0.0325594
-0.0734781, 0.594356, 0.0284257
-0.0637056, 0.594586, 0.0265036
-0.0539209, 0.594765, 0.0250039
-0.0441302, 0.594939, 0.0235429
-0.0343271, 0.595003, 0.0230079
-0.0245338, 0.595355, 0.0200691
-0.0147235, 0.595482, 0.0190005
-0.00490741, 0.59543, 0.0194416
0.00490556, 0.595206, 0.0213151
0.0147334, 0.595884, 0.0156446
0.0245851, 0.596598, 0.00966597
0.063925, 0.596633, 0.00937414
0.0737223, 0.596331, 0.0119004
0.0834889, 0.595882, 0.0156622
0.0932052, 0.595205, 0.0213189
0.102886, 0.594453, 0.0276093
0.11259, 0.593955, 0.0317793
0.122218, 0.593166, 0.0383754
0.132185, 0.594018, 0.0312543
0.141725, 0.592963, 0.0400763
0.15131, 0.592224, 0.0462561
0.160892, 0.591561, 0.0518022
0.170488, 0.591025, 0.0562892
0.18006, 0.590466, 0.0609608
0.189637, 0.589983, 0.0650029
0.199232, 0.589598, 0.0682225
0.208819, 0.589225, 0.0713439
0.218359, 0.588759, 0.0752378
0.227973, 0.588525, 0.077198
0.237598, 0.588337, 0.0787702
0.247275, 0.588288, 0.0791755
0.25697, 0.588283, 0.0792198
0.266679, 0.588311, 0.078989
0.276559, 0.588699, 0.0757399
0.286509, 0.589205, 0.0715117
0.296514, 0.589788, 0.0666299
0.306709, 0.590699, 0.0590124
0.317078, 0.591879, 0.0491385
0.327693, 0.593435, 0.036128
0.337408, 0.593316, 0.0371208
0.348294, 0.595207, 0.0213051
0.39849, 0.596915, 0.00701904
0.408102, 0.596583, 0.00979948
0.41743, 0.595861, 0.0158329
0.427216, 0.595811, 0.0162544
0.437452, 0.596376, 0.0115261
0.447627, 0.596836, 0.00767612
-0.397889, 0.609114, 0.0145483
-0.387629, 0.60843, 0.0201435
-0.377715, 0.608268, 0.0214691
-0.367801, 0.608098, 0.0228615
-0.357893, 0.607928, 0.0242577
-0.348136, 0.608012, 0.0235653
-0.338482, 0.608287, 0.0213175
-0.329063, 0.609012, 0.0153856
-0.319651, 0.609796, 0.0089674
-0.310451, 0.611046, -0.00126457
-0.250507, 0.609075, 0.0148635
-0.240326, 0.608173, 0.0222502
-0.23025, 0.607467, 0.0280242
-0.220012, 0.606254, 0.0379519
-0.209958, 0.605459, 0.0444632
-0.200133, 0.605279, 0.0459371
-0.190358, 0.605241, 0.0462461
-0.180585, 0.605204, 0.0465536
-0.170812, 0.605163, 0.046885
-0.161031, 0.605086, 0.0475154
-0.151244, 0.604975, 0.0484204
-0.141455, 0.604841, 0.0495181
-0.131708, 0.604879, 0.0492058
-0.121992, 0.60508, 0.0475655
-0.112303, 0.60546, 0.0444527
-0.10264, 0.606062, 0.0395231
-0.0930233, 0.607099, 0.0310392
-0.0833833, 0.608208, 0.021965
-0.0736879, 0.609153, 0.0142303
-0.0639143, 0.609644, 0.0102081
-0.05408, 0.60963, 0.010325
0.161695, 0.607582, 0.0270882
0.171259, 0.606746, 0.0339289
0.180734, 0.605703, 0.0424638
0.19055, 0.605852, 0.0412436
0.2002, 0.605484, 0.0442562
0.209692, 0.604693, 0.0507331
0.219347, 0.604422, 0.0529461
0.229029, 0.604247, 0.0543852
0.238719, 0.604104, 0.0555491
0.248409, 0.603974, 0.056613
0.258173, 0.604026, 0.0561867
0.268054, 0.60434, 0.0536242
0.278141, 0.605079, 0.0475712
0.288252, 0.605818, 0.0415211
0.298058, 0.605889, 0.0409441
0.308566, 0.607336, 0.0291014
0.408612, 0.610456, 0.00356197
0.417821, 0.609527, 0.0111675
0.427017, 0.608622, 0.0185723
0.436763, 0.608523, 0.019382
0.446855, 0.608901, 0.0162883
0.456903, 0.609204, 0.0138078
0.466925, 0.60946, 0.0117188
0.477071, 0.609864, 0.00840712
0.614206, 0.609292, 0.0130882
0.623371, 0.608645, 0.0183849
0.63273, 0.608206, 0.0219789
0.64155, 0.607269, 0.0296516
0.652265, 0.608127, 0.022625
0.662005, 0.608064, 0.0231409
0.671796, 0.608049, 0.0232649
0.681852, 0.608271, 0.0214496
0.691882, 0.608464, 0.0198698
0.702321, 0.609005, 0.0154357
-0.397595, 0.621754, 0.0182285
-0.387574, 0.621426, 0.0208521
-0.377751, 0.621408, 0.0209999
-0.367853, 0.621263, 0.0221658
-0.357855, 0.620936, 0.0247803
-0.347972, 0.620795, 0.025908
-0.338172, 0.620798, 0.0258837
-0.328498, 0.621041, 0.0239382
-0.318958, 0.621559, 0.0197926
-0.309504, 0.622283, 0.0139885
-0.300013, 0.622977, 0.00842857
