-0.0605721, 0.397352, 0.0819879
-0.0557186, 0.397297, 0.0826683
-0.0508719, 0.397285, 0.0828156
-0.0460237, 0.397257, 0.0831666
-0.0411712, 0.397182, 0.0841012
-0.0363225, 0.397127, 0.0847807
-0.0314752, 0.397072, 0.0854559
-0.0266293, 0.397017, 0.0861344
-0.0217845, 0.396962, 0.0868182
-0.0169416, 0.396918, 0.0873575
-0.0121012, 0.39692, 0.0873437
-0.00726072, 0.396921, 0.0873241
-0.00242021, 0.396923, 0.0872989
0.00242022, 0.396925, 0.0872788
0.00726081, 0.396926, 0.0872645
0.0121014, 0.396928, 0.0872436
0.0169417, 0.396919, 0.0873475
0.021782, 0.396915, 0.0873966
0.0266247, 0.396949, 0.0869818
0.0314691, 0.396995, 0.0864124
0.0363146, 0.397041, 0.0858469
0.0411625, 0.397097, 0.0851479
0.0460125, 0.39716, 0.084363
0.050864, 0.397223, 0.0835824
0.0557171, 0.397287, 0.082798
0.0605718, 0.397351, 0.0820074
0.0654434, 0.397508, 0.0800562
0.0703223, 0.397685, 0.0778699
0.0752058, 0.397863, 0.0756688
0.0800953, 0.398049, 0.0733633
0.0849892, 0.398235, 0.0710616
0.0898878, 0.398421, 0.0687551
0.0948076, 0.398678, 0.0655775
0.0997636, 0.399055, 0.0609188
0.104729, 0.399432, 0.0562453
0.109704, 0.399811, 0.0515571
0.114691, 0.400197, 0.0467834
0.119741, 0.400767, 0.0397239
0.124779, 0.401251, 0.0337348
0.129813, 0.401686, 0.0283494
0.134944, 0.40238, 0.0197606
0.140172, 0.403301, 0.00835705
0.162082, 0.408946, -0.0615101
0.166726, 0.408106, -0.0511088
0.171469, 0.407548, -0.0442085
0.176271, 0.40716, -0.0394063
0.181086, 0.406824, -0.0352378
0.18583, 0.406347, -0.0293407
0.190706, 0.406179, -0.0272641
0.195579, 0.406011, -0.0251827
0.200452, 0.405854, -0.0232363
0.205269, 0.405591, -0.0199809
0.209978, 0.405134, -0.0143299
0.210809, 0.397388, 0.0815482
0.215191, 0.396531, 0.0921526
0.219751, 0.396035, 0.0982904
0.22445, 0.395804, 0.101156
0.229134, 0.395557, 0.104205
0.233831, 0.395343, 0.106861
0.238571, 0.395209, 0.108515
0.243309, 0.395076, 0.110164
0.248059, 0.394967, 0.111509
0.252802, 0.394853, 0.112918
0.257532, 0.394722, 0.114541
0.262283, 0.394628, 0.115711
0.267058, 0.394571, 0.116407
0.271838, 0.394525, 0.116978
0.276617, 0.39448, 0.117545
0.281419, 0.394467, 0.117697
0.286302, 0.394568, 0.116451
0.291169, 0.394642, 0.11553
0.296013, 0.394684, 0.11501
0.30093, 0.39482, 0.113331
0.305872, 0.394984, 0.1113
0.310819, 0.39515, 0.109252
0.315777, 0.395323, 0.1071
0.320792, 0.395563, 0.104128
0.325835, 0.395829, 0.100843
0.330884, 0.396095, 0.0975523
0.335902, 0.396316, 0.0948143
0.340884, 0.396489, 0.0926681
0.345868, 0.39666, 0.0905566
0.350862, 0.396837, 0.0883703
0.35586, 0.397014, 0.0861793
0.361059, 0.397407, 0.0813093
0.366433, 0.39798, 0.0742178
-0.222735, 0.407939, 0.0317426
-0.217522, 0.407344, 0.0389857
-0.21236, 0.406819, 0.0453773
-0.207124, 0.406125, 0.0538349
-0.20186, 0.405342, 0.0633745
-0.196658, 0.404646, 0.0718436
-0.191533, 0.404077, 0.0787745
-0.186442, 0.403554, 0.0851431
-0.181402, 0.403116, 0.0904808
-0.176401, 0.402742, 0.095037
-0.171476, 0.402525, 0.0976758
-0.166582, 0.402372, 0.0995426
-0.161636, 0.402078, 0.103117
-0.156723, 0.401853, 0.10586
-0.151841, 0.401695, 0.107782
-0.146965, 0.401544, 0.109628
-0.142109, 0.401438, 0.110921
-0.137272, 0.401379, 0.111631
-0.132429, 0.401298, 0.112615
-0.127599, 0.401256, 0.113135
-0.122771, 0.401211, 0.11368
-0.11794, 0.401156, 0.11435
-0.113126, 0.401155, 0.114367
-0.108318, 0.401178, 0.114079
-0.103514, 0.401216, 0.113616
-0.0987141, 0.401277, 0.11288
-0.0939151, 0.401347, 0.112028
-0.0891328, 0.401499, 0.110175
-0.0843453, 0.401644, 0.108406
-0.0795638, 0.401837, 0.106054
-0.0748184, 0.402249, 0.101036
-0.0700677, 0.402688, 0.0956931
-0.0653182, 0.403199, 0.089468
-0.0605277, 0.403518, 0.0855894
-0.0556778, 0.403462, 0.0862699
-0.0508283, 0.403399, 0.0870357
-0.0459785, 0.40332, 0.0879946
-0.0411306, 0.403241, 0.0889587
-0.0362856, 0.403174, 0.0897779
-0.0314431, 0.403117, 0.0904627
-0.0266021, 0.403062, 0.0911417
-0.0217624, 0.403006, 0.0918155
-0.0169242, 0.402957, 0.0924149
-0.0120887, 0.402958, 0.0924001
-0.00725325, 0.40296, 0.092381
-0.00241771, 0.40296, 0.0923762
0.00241764, 0.402948, 0.092526
0.00725282, 0.402936, 0.09267
0.0120877, 0.402924, 0.0928192
0.0169223, 0.402911, 0.0929728
0.0217572, 0.40291, 0.0929914
0.0265943, 0.402943, 0.092587
0.031432, 0.402975, 0.0921969
0.0362707, 0.403008, 0.0917912
0.0411112, 0.403051, 0.0912709
0.0459531, 0.403098, 0.0907054
0.0507961, 0.403144, 0.0901451
0.0556403, 0.40319, 0.0895791
0.0604855, 0.403236, 0.0890183
0.0653455, 0.403368, 0.0874152
0.0702133, 0.403525, 0.0854983
0.0750891, 0.403705, 0.0833073
0.0799692, 0.403884, 0.081121
0.0848544, 0.404068, 0.0788803
0.0897451, 0.404257, 0.0765834
0.0946461, 0.404471, 0.0739832
0.0995799, 0.404797, 0.070013
0.104499, 0.405033, 0.0671334
0.109452, 0.405378, 0.0629334
0.114426, 0.405767, 0.0581903
0.11941, 0.406157, 0.0534425
0.124374, 0.406449, 0.0498853
0.129359, 0.406788, 0.0457554
0.134389, 0.40724, 0.0402551
0.139432, 0.407695, 0.0347099
0.144485, 0.408151, 0.0291605
0.149562, 0.40864, 0.0232072
0.154644, 0.409111, 0.0174689
0.159755, 0.409629, 0.011157
0.164834, 0.410036, 0.00620604
0.171456, 0.414144, -0.0438328
0.176207, 0.413631, -0.0375767
0.181012, 0.41327, -0.0331788
0.185829, 0.412952, -0.0293145
0.190705, 0.412782, -0.0272384
0.19558, 0.412616, -0.0252171
0.198904, 0.409267, 0.0155678
0.202483, 0.406592, 0.0481482
0.206442, 0.404787, 0.0701261
0.210552, 0.403355, 0.0875664
0.215111, 0.40283, 0.0939679
0.219719, 0.402416, 0.0989995
0.224409, 0.402167, 0.102044
0.229092, 0.401915, 0.105103
0.233805, 0.401726, 0.107409
0.238545, 0.401591, 0.109054
0.243282, 0.401456, 0.110703
0.248029, 0.401341, 0.112097
0.252782, 0.401241, 0.113317
0.257533, 0.401141, 0.114532
0.262301, 0.401072, 0.115372
0.267073, 0.40101, 0.116128
0.271843, 0.400948, 0.116879
0.276619, 0.400896, 0.117514
0.281396, 0.400849, 0.118085
0.286251, 0.400912, 0.117327
0.291109, 0.400977, 0.116534
0.295952, 0.401019, 0.116024
0.300796, 0.401062, 0.115499
0.305726, 0.401215, 0.113637
0.310669, 0.401381, 0.111609
0.315617, 0.401548, 0.109578
0.320588, 0.40174, 0.107242
0.325644, 0.402029, 0.103718
0.330707, 0.40232, 0.10018
0.335777, 0.40261, 0.0966458
0.340807, 0.402845, 0.0937839
0.345821, 0.403055, 0.0912247
0.350815, 0.403235, 0.0890288
0.355812, 0.403415, 0.0868382
0.360865, 0.403652, 0.0839562
0.366086, 0.404068, 0.0788832
0.371717, 0.40492, 0.0685081
-0.227772, 0.414725, 0.028636
-0.222511, 0.414049, 0.0367393
-0.217325, 0.413487, 0.0434833
-0.21205, 0.412726, 0.0526023
-0.206803, 0.411985, 0.0614882
-0.201624, 0.411346, 0.0691447
-0.196491, 0.410771, 0.0760293
-0.191347, 0.410144, 0.0835471
-0.186286, 0.409668, 0.0892582
-0.181251, 0.409223, 0.0945854
-0.176293, 0.408935, 0.0980453
-0.171427, 0.408848, 0.099081
-0.166503, 0.408617, 0.101854
-0.161578, 0.408367, 0.104851
-0.156682, 0.408176, 0.107145
-0.151803, 0.40802, 0.109007
-0.146933, 0.40788, 0.110693
-0.142081, 0.407779, 0.111897
-0.137248, 0.40773, 0.112487
-0.132411, 0.407666, 0.113252
-0.127582, 0.407621, 0.113792
-0.122765, 0.407611, 0.113919
-0.117934, 0.407555, 0.114588
-0.113117, 0.407542, 0.114745
-0.108304, 0.407542, 0.114736
-0.103499, 0.407576, 0.114333
-0.098701, 0.407643, 0.113528
-0.0939015, 0.407709, 0.112736
-0.0891025, 0.407784, 0.111839
-0.0843149, 0.407923, 0.11017
-0.0795466, 0.408179, 0.107111
-0.0747869, 0.408513, 0.103099
-0.0700262, 0.408889, 0.0985942
-0.0652813, 0.409419, 0.0922403
-0.0604863, 0.409694, 0.0889502
-0.0556373, 0.409619, 0.0898409
-0.0507916, 0.409557, 0.0905852
-0.0459453, 0.409477, 0.0915446
-0.0411009, 0.409398, 0.0924983
-0.0362584, 0.409318, 0.0934572
-0.0314178, 0.409238, 0.0944104
-0.0265792, 0.409158, 0.0953684
-0.0217423, 0.409078, 0.0963316
-0.0169078, 0.409009, 0.0971599
-0.0120762, 0.408982, 0.0974751
-0.00724532, 0.40896, 0.097744
-0.00241494, 0.408939, 0.0979981
0.00241487, 0.408927, 0.0981379
0.00724451, 0.408914, 0.0982924
0.0120739, 0.408902, 0.0984416
0.0169029, 0.40889, 0.0985847
0.0217324, 0.408891, 0.0985742
0.026564, 0.408925, 0.0981688
0.0313963, 0.408957, 0.0977788
0.0362294, 0.40899, 0.0973835
0.0410634, 0.409023, 0.0969825
0.0458981, 0.409056, 0.0965867
0.0507342, 0.409095, 0.0961256
0.0555725, 0.409142, 0.0955601
0.0604118, 0.409189, 0.0949988
0.0652654, 0.409319, 0.0934362
0.0701253, 0.409468, 0.0916591
0.0749886, 0.409615, 0.0898862
0.0798555, 0.409764, 0.0881095
0.084726, 0.409912, 0.0863261
0.0896034, 0.410077, 0.0843592
0.0944959, 0.41029, 0.0817986
0.0994233, 0.410626, 0.0777693
0.104359, 0.410964, 0.0737233
0.109284, 0.41123, 0.0705304
0.114207, 0.41147, 0.0676508
0.119137, 0.41171, 0.0647759
0.124077, 0.411969, 0.0616775
0.129017, 0.412206, 0.0588322
0.133963, 0.412444, 0.0559821
0.138939, 0.412755, 0.0522504
0.143955, 0.41316, 0.0473981
0.148954, 0.41349, 0.043447
0.153942, 0.41377, 0.0400791
0.158937, 0.414052, 0.036706
0.163939, 0.414334, 0.0333281
0.168948, 0.414616, 0.0299454
0.173915, 0.414783, 0.0279412
0.178815, 0.414784, 0.0279245
0.183714, 0.414786, 0.0279121
0.188613, 0.414786, 0.0279055
0.193292, 0.414314, 0.0335584
0.197562, 0.413011, 0.0491843
0.201943, 0.411995, 0.061358
0.206094, 0.410572, 0.0784245
0.210492, 0.409693, 0.0889525
0.215042, 0.409143, 0.0955524
0.219685, 0.408791, 0.0997667
0.224374, 0.408537, 0.102811
0.229057, 0.408284, 0.105849
0.233794, 0.408135, 0.107638
0.23854, 0.408007, 0.109163
0.243283, 0.407881, 0.110682
0.24803, 0.407765, 0.112066
0.252783, 0.407663, 0.113286
0.257546, 0.407581, 0.114271
0.26232, 0.407519, 0.115023
0.267092, 0.407456, 0.115778
0.271862, 0.407392, 0.116539
0.276632, 0.40733, 0.117284
0.281399, 0.407267, 0.118034
0.2862, 0.407254, 0.118191
0.291049, 0.407308, 0.117547
0.295896, 0.407359, 0.116938
0.300758, 0.407427, 0.116125
0.305645, 0.407526, 0.114928
0.3106, 0.407712, 0.112702
0.315559, 0.407898, 0.110472
0.320513, 0.408071, 0.108394
0.32551, 0.408294, 0.105727
0.330576, 0.408595, 0.102118
0.335644, 0.40889, 0.0985847
0.340712, 0.409177, 0.0951467
0.345746, 0.409415, 0.0922894
0.350755, 0.409617, 0.0898652
0.355765, 0.409815, 0.0874953
0.360766, 0.409998, 0.0852995
0.365875, 0.410297, 0.0817175
0.371134, 0.410754, 0.0762424
0.377075, 0.411944, 0.0619693
-0.233078, 0.421993, 0.0199389
-0.227511, 0.420772, 0.0343461
-0.222327, 0.420222, 0.0408454
-0.216982, 0.419335, 0.0513029
-0.211726, 0.418585, 0.0601625
-0.206579, 0.418019, 0.0668368
-0.201423, 0.417407, 0.0740647
-0.196321, 0.41688, 0.0802827
-0.19121, 0.416305, 0.0870628
-0.186143, 0.4158, 0.0930219
-0.181163, 0.415466, 0.0969644
-0.176242, 0.415255, 0.0994592
-0.171377, 0.415167, 0.100494
-0.166438, 0.41489, 0.103765
-0.161531, 0.414677, 0.106273
-0.156642, 0.414499, 0.108378
-0.15177, 0.414356, 0.11007
-0.146901, 0.414212, 0.111767
-0.142052, 0.414118, 0.112871
-0.13722, 0.414068, 0.113461
-0.13239, 0.414019, 0.114047
-0.127565, 0.413985, 0.114448
-0.122749, 0.413978, 0.114524
-0.117928, 0.413952, 0.114835
-0.113111, 0.413936, 0.115021
-0.108296, 0.413931, 0.115082
-0.10349, 0.41396, 0.114739
-0.098689, 0.414012, 0.114123
-0.0938902, 0.41408, 0.113321
-0.0890927, 0.41416, 0.112375
-0.084296, 0.414255, 0.111264
-0.0795235, 0.414486, 0.108533
-0.074758, 0.414786, 0.104991
-0.0699878, 0.4151, 0.101284
-0.0652332, 0.41556, 0.0958571
-0.0604453, 0.415863, 0.0922785
-0.0555989, 0.415783, 0.0932283
-0.050755, 0.415707, 0.0941229
-0.0459122, 0.415626, 0.0950818
-0.0410727, 0.415559, 0.0958667
-0.0362351, 0.415497, 0.0966058
-0.0313991, 0.415434, 0.0973396
-0.0265644, 0.41537, 0.0980988
-0.0217304, 0.415291, 0.0990319
-0.0168982, 0.415212, 0.0999694
-0.0120691, 0.415176, 0.100394
-0.00724083, 0.415143, 0.100783
-0.00241342, 0.415116, 0.101097
0.00241328, 0.415093, 0.101366
0.00723956, 0.41507, 0.10164
0.0120653, 0.415046, 0.101918
0.0168905, 0.415023, 0.102191
0.0217158, 0.415012, 0.10232
0.0265423, 0.415024, 0.102184
0.0313689, 0.415035, 0.102053
0.0361959, 0.415047, 0.101916
0.0410231, 0.415058, 0.101785
0.0458506, 0.415069, 0.101658
0.0506785, 0.415081, 0.101516
0.0555067, 0.415093, 0.101369
0.0603384, 0.415128, 0.100957
0.0651857, 0.415257, 0.0994339
0.0700398, 0.415408, 0.0976467
0.0748975, 0.41556, 0.0958548
0.0797587, 0.415712, 0.0940671
0.0846235, 0.415864, 0.0922747
0.0894919, 0.416016, 0.090477
0.0943665, 0.416181, 0.0885344
0.0992689, 0.416445, 0.0854115
0.104193, 0.416774, 0.0815358
0.109129, 0.417115, 0.0775061
0.114062, 0.417418, 0.0739288
0.118985, 0.417662, 0.0710545
0.123891, 0.417827, 0.0691013
0.128786, 0.417947, 0.0676908
0.133696, 0.418103, 0.0658474
0.138614, 0.418272, 0.063849
0.143535, 0.418442, 0.0618453
0.148494, 0.418705, 0.0587406
0.153383, 0.418761, 0.0580816
0.158263, 0.418789, 0.0577459
0.163144, 0.418818, 0.057405
0.168026, 0.418847, 0.0570688
0.172908, 0.418875, 0.0567374
0.177824, 0.418983, 0.0554652
0.182566, 0.418685, 0.0589767
0.187334, 0.418461, 0.0616169
0.192112, 0.418269, 0.0638928
0.196887, 0.418081, 0.0661044
0.201555, 0.417679, 0.0708489
0.205836, 0.416516, 0.084578
0.210444, 0.41605, 0.0900774
0.214997, 0.415499, 0.0965767
0.219665, 0.415191, 0.100214
0.224352, 0.414931, 0.103286
0.229035, 0.414674, 0.106315
0.233789, 0.414554, 0.107735
0.238541, 0.414435, 0.109131
0.243284, 0.414306, 0.110659
0.248032, 0.414189, 0.112034
0.25279, 0.414094, 0.113163
0.257564, 0.414029, 0.11393
0.262338, 0.413965, 0.114681
0.26711, 0.4139, 0.115447
0.271881, 0.413837, 0.116197
0.276651, 0.413773, 0.116942
0.281418, 0.413709, 0.117702
0.286182, 0.413642, 0.118495
0.291026, 0.41369, 0.117931
0.295886, 0.413759, 0.117114
0.300746, 0.413827, 0.11631
0.305605, 0.41389, 0.115571
0.310545, 0.41406, 0.113564
0.315503, 0.414249, 0.111334
0.320451, 0.414418, 0.109336
0.325392, 0.414574, 0.107493
0.330434, 0.414851, 0.104224
0.33551, 0.415163, 0.100541
0.340584, 0.415465, 0.0969839
0.345642, 0.415737, 0.0937691
0.350679, 0.415978, 0.0909281
0.355692, 0.416184, 0.0884986
0.360709, 0.416389, 0.0860744
0.365723, 0.416585, 0.0837646
0.370915, 0.416976, 0.079144
0.376373, 0.417653, 0.0711613
-0.23276, 0.427951, 0.0267329
-0.22732, 0.426938, 0.0385003
-0.221998, 0.426106, 0.0481749
-0.216652, 0.425189, 0.0588303
-0.211525, 0.424672, 0.0648422
-0.20636, 0.424049, 0.0720739
-0.201261, 0.423536, 0.0780368
-0.19616, 0.422995, 0.0843244
-0.191073, 0.422457, 0.0905757
-0.186057, 0.422051, 0.0952997
-0.18112, 0.421808, 0.0981178
-0.176202, 0.421597, 0.100572
-0.171304, 0.421425, 0.102572
-0.16639, 0.4212, 0.105186
-0.161504, 0.421035, 0.107107
-0.156638, 0.420915, 0.108505
-0.151776, 0.420796, 0.109888
-0.146916, 0.420677, 0.111265
-0.142062, 0.420567, 0.112538
-0.137228, 0.420511, 0.113189
-0.132395, 0.420455, 0.113843
-0.127571, 0.420422, 0.114225
-0.122747, 0.420389, 0.11461
-0.117924, 0.420356, 0.115001
-0.113104, 0.42033, 0.115296
-0.108289, 0.420321, 0.115397
-0.103482, 0.420344, 0.115134
-0.0986731, 0.420364, 0.114906
-0.093885, 0.420476, 0.113596
-0.0890855, 0.420548, 0.11277
-0.0842884, 0.420639, 0.111709
-0.0795015, 0.420796, 0.109885
-0.0747296, 0.421057, 0.106851
-0.0699511, 0.421315, 0.103851
-0.0652016, 0.421798, 0.0982361
-0.0604079, 0.422049, 0.0953159
-0.0555646, 0.421969, 0.0962553
-0.0507269, 0.421919, 0.0968313
-0.0458889, 0.421855, 0.0975704
-0.0410523, 0.421792, 0.0983052
-0.0362171, 0.421729, 0.0990448
-0.0313823, 0.42165, 0.0999579
-0.0265493, 0.42157, 0.100886
-0.021718, 0.42149, 0.10182
-0.0168886, 0.42141, 0.102746
-0.0120621, 0.421368, 0.103231
-0.00723664, 0.421335, 0.10362
-0.00241198, 0.421301, 0.104013
0.00241179, 0.421268, 0.104402
0.00723502, 0.421241, 0.104716
0.0120577, 0.421217, 0.104985
0.0168799, 0.421193, 0.105268
0.0217023, 0.421185, 0.105356
0.0265258, 0.421197, 0.10522
0.0313494, 0.421208, 0.105089
0.0361735, 0.42122, 0.104952
0.0409977, 0.421232, 0.104821
0.0458222, 0.421242, 0.104694
0.0506465, 0.42125, 0.104602
0.0554711, 0.421259, 0.104505
0.0602959, 0.421267, 0.104412
0.06513, 0.421335, 0.103616
0.0699696, 0.421426, 0.102557
0.0748132, 0.421528, 0.101372
0.0796641, 0.421656, 0.0998831
0.084523, 0.42181, 0.0981007
0.0893857, 0.421964, 0.096303
0.0942532, 0.422126, 0.0944304
0.0991448, 0.422373, 0.091557
0.104043, 0.422625, 0.0886278
0.108963, 0.422939, 0.0849767
0.113894, 0.423266, 0.081181
0.118834, 0.423597, 0.0773311
0.123734, 0.423767, 0.0753579
0.128623, 0.423888, 0.0739474
0.133514, 0.424009, 0.0725408
0.138409, 0.42413, 0.0711403
0.143319, 0.424289, 0.0692859
0.148237, 0.424461, 0.0672874
0.153123, 0.424532, 0.0664687
0.157997, 0.424567, 0.0660629
0.162872, 0.424601, 0.0656624
0.167735, 0.424604, 0.0656242
0.172583, 0.424569, 0.0660295
0.17743, 0.424535, 0.0664301
0.182236, 0.424407, 0.0679197
0.187036, 0.424271, 0.0694938
0.191847, 0.424168, 0.070694
0.196624, 0.423996, 0.0726962
0.201272, 0.423561, 0.0777483
0.20571, 0.422714, 0.0875931
0.210381, 0.422374, 0.0915494
0.214975, 0.421898, 0.0970726
0.219653, 0.421605, 0.100479
0.224331, 0.421324, 0.103751
0.229023, 0.42108, 0.10658
0.233781, 0.420966, 0.107901
0.238537, 0.420852, 0.109226
0.243285, 0.420731, 0.110636
0.248034, 0.420614, 0.112
0.252807, 0.420543, 0.112821
0.257582, 0.420477, 0.113587
0.262357, 0.420413, 0.114338
0.267123, 0.420337, 0.115213
0.271897, 0.420278, 0.115904
0.276665, 0.420209, 0.116699
0.281431, 0.420142, 0.117488
0.286196, 0.420074, 0.118271
0.291016, 0.420088, 0.118105
0.295875, 0.420159, 0.117288
0.300734, 0.420225, 0.116514
0.305592, 0.420289, 0.115776
0.310491, 0.420406, 0.114415
0.315448, 0.420598, 0.112184
0.32039, 0.420762, 0.110276
0.32533, 0.420921, 0.108434
0.330288, 0.421097, 0.106387
0.335361, 0.421413, 0.102715
0.340442, 0.42173, 0.0990281
0.345529, 0.422044, 0.0953765
0.350589, 0.422319, 0.0921874
0.355614, 0.422544, 0.0895691
0.360631, 0.422752, 0.0871453
0.365659, 0.422969, 0.0846272
0.370746, 0.423248, 0.0813885
0.37608, 0.423798, 0.074996
0.382279, 0.425296, 0.0575924
-0.232554, 0.434101, 0.0311251
-0.227025, 0.432893, 0.0449514
-0.221649, 0.431932, 0.0559487
-0.216447, 0.431272, 0.063508
-0.211301, 0.430697, 0.0700874
-0.206193, 0.430176, 0.0760541
-0.201109, 0.429679, 0.081738
-0.196027, 0.429161, 0.087666
-0.190956, 0.428644, 0.0935884
-0.186013, 0.428394, 0.0964513
-0.181078, 0.428148, 0.099268
-0.176164, 0.427941, 0.101633
-0.171277, 0.42779, 0.103364
-0.166398, 0.427652, 0.104942
-0.161524, 0.427516, 0.106504
-0.156653, 0.427382, 0.108032
-0.151796, 0.427277, 0.109235
-0.146937, 0.42716, 0.110573
-0.142079, 0.42704, 0.111945
-0.137239, 0.426967, 0.112784
-0.132408, 0.426916, 0.113369
-0.127585, 0.426889, 0.113681
-0.122762, 0.426858, 0.114037
-0.117939, 0.426826, 0.114397
-0.113126, 0.426831, 0.114344
-0.108309, 0.426816, 0.114515
-0.103483, 0.426768, 0.115058
-0.0986588, 0.426719, 0.115617
-0.0938667, 0.426813, 0.114547
-0.0890843, 0.426963, 0.112834
-0.0842845, 0.427041, 0.111932
-0.0794904, 0.427161, 0.110568
-0.0747077, 0.42736, 0.10828
-0.069929, 0.427612, 0.105401
-0.0651578, 0.42795, 0.10153
-0.0603722, 0.42824, 0.0982113
-0.0555351, 0.428183, 0.0988622
-0.0507014, 0.428145, 0.099298
-0.0458661, 0.428084, 0.0999975
-0.0410307, 0.428007, 0.100882
-0.0361967, 0.427926, 0.10181
-0.0313645, 0.427844, 0.102744
-0.0265342, 0.427763, 0.103671
-0.0217057, 0.427682, 0.104604
-0.016879, 0.427601, 0.105532
-0.0120551, 0.427554, 0.106066
-0.00723245, 0.42752, 0.106454
-0.00241059, 0.427486, 0.106838
0.0024104, 0.427452, 0.107227
0.00723073, 0.427418, 0.10762
0.0120503, 0.427384, 0.108008
0.0168693, 0.427356, 0.108331
0.0216889, 0.427351, 0.10839
0.0265094, 0.427363, 0.108254
0.0313298, 0.427372, 0.108152
0.0361505, 0.42738, 0.108057
0.0409714, 0.427388, 0.107965
0.0457925, 0.427397, 0.107867
0.0506137, 0.427405, 0.107775
0.0554352, 0.427413, 0.107677
0.0602568, 0.427421, 0.107585
0.0650889, 0.427498, 0.106709
0.069923, 0.427575, 0.105819
0.0747598, 0.427658, 0.104874
0.0796022, 0.427761, 0.103694
0.0844468, 0.427864, 0.10252
0.0892939, 0.427967, 0.101339
0.0941432, 0.42807, 0.100154
0.0990257, 0.428307, 0.0974498
0.103917, 0.428558, 0.0945711
0.108815, 0.42881, 0.0916877
0.11373, 0.429108, 0.0882802
0.11866, 0.429435, 0.0845394
0.123572, 0.429674, 0.0817995
0.128464, 0.429828, 0.08003
0.133349, 0.429949, 0.0786548
0.138236, 0.430067, 0.0773039
0.143125, 0.430184, 0.0759573
0.148018, 0.430304, 0.0745859
0.152894, 0.43037, 0.0738368
0.157747, 0.430365, 0.0738888
0.162603, 0.430373, 0.0737963
0.16746, 0.430381, 0.073709
0.172314, 0.430381, 0.0737052
0.177149, 0.430336, 0.0742245
0.181976, 0.430273, 0.0749474
0.186775, 0.430148, 0.0763717
0.191545, 0.429967, 0.0784478
0.196274, 0.429702, 0.0814743
0.20095, 0.429339, 0.0856299
0.205633, 0.429006, 0.0894418
0.210318, 0.428694, 0.093019
0.214964, 0.428317, 0.0973268
0.219642, 0.42802, 0.100733
0.224313, 0.427723, 0.104135
0.229015, 0.427495, 0.106744
0.233773, 0.427379, 0.108065
0.238529, 0.427264, 0.10939
0.243282, 0.427148, 0.110709
0.248041, 0.427048, 0.111854
0.252807, 0.426963, 0.112825
0.257571, 0.426878, 0.1138
0.262334, 0.426794, 0.114769
0.267094, 0.426708, 0.115744
0.271886, 0.426676, 0.116116
0.276678, 0.426645, 0.116473
0.281444, 0.426576, 0.117262
0.286208, 0.426506, 0.118056
0.291005, 0.426487, 0.118278
0.295865, 0.426559, 0.11746
0.300721, 0.426623, 0.116716
0.305579, 0.426688, 0.115977
0.310438, 0.426752, 0.115243
0.315392, 0.426943, 0.113062
0.320328, 0.427104, 0.111215
0.325268, 0.427265, 0.109372
0.330211, 0.427427, 0.107524
0.335213, 0.427658, 0.104876
0.340292, 0.427979, 0.101199
0.345402, 0.42833, 0.0971804
0.350514, 0.428675, 0.093236
0.355578, 0.428951, 0.0900717
0.360607, 0.429179, 0.0874696
0.365642, 0.429407, 0.0848517
0.370706, 0.429663, 0.0819216
0.375981, 0.430155, 0.0762944
0.381754, 0.431195, 0.0643854
-0.238056, 0.441754, 0.0184407
-0.232187, 0.439933, 0.0389771
-0.226696, 0.438766, 0.0521369
-0.22144, 0.438014, 0.0606151
-0.216256, 0.437372, 0.0678544
-0.211143, 0.436847, 0.0737767
-0.206049, 0.43634, 0.0794945
-0.200986, 0.435874, 0.0847497
-0.195894, 0.43532, 0.0909958
-0.190912, 0.434989, 0.0947289
-0.18597, 0.434735, 0.09759
-0.181037, 0.434489, 0.100367
-0.17615, 0.434343, 0.102005
-0.171291, 0.434258, 0.10297
-0.166418, 0.434134, 0.104368
-0.161544, 0.433998, 0.105901
-0.156671, 0.433859, 0.107468
-0.15181, 0.433742, 0.10879
-0.146954, 0.433635, 0.109998
-0.142099, 0.433523, 0.111251
-0.137251, 0.433423, 0.112379
-0.132423, 0.433384, 0.112825
-0.127599, 0.433356, 0.113136
-0.122776, 0.433327, 0.113461
-0.117954, 0.433302, 0.113753
-0.113136, 0.433288, 0.113909
-0.108331, 0.433325, 0.113492
-0.103513, 0.433309, 0.113667
-0.0986871, 0.433261, 0.114216
-0.0938693, 0.433243, 0.11441
-0.0890759, 0.433342, 0.113295
-0.0842832, 0.433457, 0.112006
-0.0794881, 0.433571, 0.11071
-0.0746973, 0.433726, 0.108962
-0.0699124, 0.433939, 0.106561
-0.0651389, 0.43426, 0.102949
-0.0603432, 0.434471, 0.100566
-0.0555125, 0.434445, 0.100859
-0.0506814, 0.434412, 0.101235
-0.0458478, 0.434348, 0.101954
-0.0410151, 0.434277, 0.102749
-0.0361839, 0.434207, 0.103538
-0.0313543, 0.434138, 0.104321
-0.0265264, 0.434068, 0.10511
-0.0217, 0.433999, 0.105893
-0.016875, 0.433929, 0.106681
-0.0120521, 0.433875, 0.107285
-0.00723047, 0.43383, 0.107794
-0.00240987, 0.433785, 0.108296
0.00240962, 0.43374, 0.108805
0.00722822, 0.433695, 0.109317
0.0120458, 0.43365, 0.109825
0.0168622, 0.4336, 0.110386
0.0216782, 0.433564, 0.110794
0.0264948, 0.433551, 0.110937
0.0313114, 0.433544, 0.111025
0.0361279, 0.433535, 0.111118
0.0409448, 0.433534, 0.111135
0.0457628, 0.433542, 0.111038
0.0505809, 0.43355, 0.110946
0.0553993, 0.433559, 0.110849
0.0602185, 0.433573, 0.110696
0.0650476, 0.433651, 0.109811
0.0698787, 0.43373, 0.108921
0.0747116, 0.433809, 0.108026
0.0795462, 0.433889, 0.107134
0.0843865, 0.433987, 0.10602
0.0892301, 0.434092, 0.104839
0.0940758, 0.434196, 0.103664
0.0989401, 0.434372, 0.101687
0.10381, 0.434552, 0.0996547
0.108684, 0.434736, 0.0975776
0.113581, 0.434991, 0.0946989
0.118492, 0.435277, 0.0914764
0.123391, 0.435498, 0.0889854
0.128284, 0.435681, 0.0869179
0.133173, 0.435838, 0.0851541
0.138065, 0.435994, 0.0833941
0.142957, 0.436139, 0.081759
0.147843, 0.436258, 0.0804172
0.152714, 0.436326, 0.0796485
0.157565, 0.436334, 0.0795612
0.162404, 0.43631, 0.0798268
0.167231, 0.436256, 0.0804358
0.17205, 0.436182, 0.0812683
0.176848, 0.436063, 0.0826135
0.181647, 0.435952, 0.0838633
0.186392, 0.435722, 0.0864615
0.191139, 0.435507, 0.0888858
0.195935, 0.435411, 0.0899706
0.20073, 0.435318, 0.0910096
0.205548, 0.435278, 0.0914674
0.210247, 0.434994, 0.0946655
0.214939, 0.434708, 0.097888
0.219614, 0.434401, 0.101355
0.224282, 0.434094, 0.104815
0.228997, 0.433889, 0.107126
0.233751, 0.433765, 0.108525
0.238503, 0.433641, 0.10992
0.243236, 0.433489, 0.111637
0.248002, 0.433402, 0.112623
0.25278, 0.433337, 0.113354
0.257543, 0.43325, 0.114329
0.262305, 0.433164, 0.115299
0.267065, 0.433078, 0.116273
0.271855, 0.433043, 0.116665
0.276653, 0.433021, 0.116912
0.281449, 0.432999, 0.117165
0.286221, 0.432939, 0.117839
0.290994, 0.432884, 0.118458
0.295853, 0.432956, 0.11765
0.300709, 0.433021, 0.116917
0.305566, 0.433086, 0.116188
0.310425, 0.433152, 0.115444
0.315331, 0.43328, 0.113999
0.320267, 0.433444, 0.112151
0.325217, 0.433622, 0.110139
0.330176, 0.433808, 0.108044
0.335139, 0.433993, 0.105952
0.340242, 0.434351, 0.101918
0.345352, 0.434708, 0.0978889
0.350469, 0.435065, 0.0938659
0.355558, 0.435377, 0.090354
0.36059, 0.435613, 0.0876927
0.365625, 0.435844, 0.0850844
0.3707, 0.436118, 0.0819964
0.375867, 0.436491, 0.0777898
0.381261, 0.437115, 0.0707483
-0.237522, 0.447292, 0.0296245
-0.231932, 0.445961, 0.0444088
-0.226454, 0.444792, 0.0573974
-0.221282, 0.444185, 0.0641441
-0.216142, 0.443618, 0.0704484
-0.210996, 0.44301, 0.0772052
-0.205922, 0.44253, 0.0825338
-0.200854, 0.442039, 0.0879884
-0.195814, 0.441589, 0.092989
-0.190868, 0.441332, 0.0958457
-0.185927, 0.441074, 0.0987172
-0.181017, 0.440876, 0.100917
-0.176155, 0.44079, 0.101877
-0.171295, 0.440702, 0.102853
-0.166434, 0.440607, 0.103902
-0.161561, 0.440474, 0.105384
-0.15669, 0.44034, 0.106872
-0.151823, 0.440207, 0.108353
-0.146967, 0.440099, 0.109551
-0.142114, 0.439991, 0.110754
-0.137264, 0.439888, 0.111892
-0.132439, 0.439857, 0.112239
-0.127614, 0.439828, 0.112559
-0.122791, 0.439799, 0.112885
-0.11797, 0.439778, 0.113116
-0.113151, 0.439764, 0.113272
-0.10834, 0.439778, 0.113114
-0.103535, 0.439822, 0.112632
-0.0987154, 0.439805, 0.112813
-0.0938928, 0.439772, 0.113186
-0.089087, 0.439817, 0.112689
-0.0842817, 0.43987, 0.112096
-0.0794834, 0.439968, 0.111
-0.0746958, 0.440143, 0.109062
-0.0699096, 0.44035, 0.106761
-0.0651221, 0.440579, 0.104215
-0.0603235, 0.440763, 0.102172
-0.0554984, 0.44077, 0.102096
-0.0506702, 0.44075, 0.102314
-0.0458385, 0.440693, 0.102953
-0.0410065, 0.440619, 0.103777
-0.0361759, 0.440543, 0.104616
-0.0313473, 0.44047, 0.105429
-0.0265204, 0.440399, 0.106217
-0.021695, 0.440328, 0.107001
-0.0168712, 0.440258, 0.107789
-0.0120493, 0.440202, 0.108402
-0.00722882, 0.440157, 0.108911
-0.00240931, 0.44011, 0.109424
0.00240906, 0.440065, 0.109931
0.00722645, 0.440012, 0.110514
0.0120427, 0.43996, 0.111091
0.0168578, 0.439908, 0.111673
0.0216726, 0.439873, 0.11206
0.0264871, 0.439846, 0.112362
0.0313011, 0.439822, 0.11263
0.036116, 0.439813, 0.112723
0.0409308, 0.439806, 0.11281
0.0457454, 0.439797, 0.112902
0.0505598, 0.43979, 0.112989
0.055374, 0.439781, 0.113081
0.0601893, 0.439783, 0.113068
0.0650117, 0.439833, 0.112511
0.0698351, 0.439881, 0.111969
0.0746643, 0.439957, 0.111124
0.0794958, 0.440038, 0.110233
0.0843292, 0.440118, 0.109337
0.0891663, 0.440208, 0.108336
0.0940086, 0.440314, 0.107162
0.0988683, 0.440486, 0.105244
0.103734, 0.440668, 0.103222
0.108604, 0.440851, 0.101195
0.113477, 0.441033, 0.0991731
0.118355, 0.441215, 0.0971451
0.123233, 0.441384, 0.0952721
0.128086, 0.441454, 0.0944886
0.132941, 0.441525, 0.0937004
0.137798, 0.441597, 0.0929065
0.142656, 0.441668, 0.0921173
0.14753, 0.441784, 0.0908256
0.152428, 0.44196, 0.0888715
0.15721, 0.4418, 0.0906453
0.162018, 0.441721, 0.0915275
0.166846, 0.441698, 0.0917783
0.171676, 0.441682, 0.0919633
0.17651, 0.441677, 0.0920134
0.181344, 0.441673, 0.0920591
0.186181, 0.441676, 0.0920291
0.191018, 0.441679, 0.0919943
0.195839, 0.441646, 0.0923624
0.200645, 0.441581, 0.0930834
0.205465, 0.441549, 0.0934405
0.210185, 0.441308, 0.0961208
0.214878, 0.441024, 0.0992742
0.219552, 0.440712, 0.10274
0.224222, 0.440408, 0.10612
0.228967, 0.44026, 0.107764
0.233721, 0.440134, 0.109163
0.238452, 0.439972, 0.110965
0.24318, 0.43981, 0.112761
0.247958, 0.439744, 0.113499
0.252735, 0.439678, 0.11423
0.25751, 0.439613, 0.114956
0.262277, 0.439534, 0.115826
0.267036, 0.439447, 0.1168
0.271825, 0.43941, 0.117202
0.276622, 0.439387, 0.117459
0.281418, 0.439366, 0.117701
0.286214, 0.439342, 0.117957
0.290997, 0.439302, 0.118408
0.295841, 0.439351, 0.117858
0.300696, 0.439417, 0.117125
0.305559, 0.439492, 0.116296
0.310425, 0.439568, 0.115453
0.31531, 0.439668, 0.114336
0.320258, 0.439852, 0.11229
0.325213, 0.440041, 0.110199
0.330172, 0.440229, 0.108103
0.335136, 0.440418, 0.106002
0.340193, 0.440722, 0.102624
0.345302, 0.441086, 0.0985861
0.350419, 0.441447, 0.094573
0.355524, 0.441785, 0.0908136
0.360573, 0.442045, 0.0879235
0.365619, 0.442294, 0.0851574
0.370695, 0.442572, 0.0820684
0.375776, 0.442851, 0.0789747
0.381123, 0.44343, 0.0725408
0.387107, 0.444727, 0.0581274
-0.242926, 0.454771, 0.0192246
-0.237186, 0.453179, 0.0366564
-0.23165, 0.45192, 0.0504441
-0.226315, 0.451008, 0.0604372
-0.221156, 0.450412, 0.0669641
-0.21602, 0.44984, 0.0732274
-0.210856, 0.44918, 0.080462
-0.205801, 0.448728, 0.0854125
-0.200721, 0.448197, 0.0912237
-0.19577, 0.447935, 0.0940952
-0.190825, 0.447675, 0.0969419
-0.185886, 0.447413, 0.099813
-0.181005, 0.447284, 0.101226
-0.176146, 0.447202, 0.102127
-0.171296, 0.44714, 0.102804
-0.166441, 0.447058, 0.103693
-0.161576, 0.446946, 0.104927
-0.156705, 0.44681, 0.106414
-0.151852, 0.446718, 0.107418
-0.147003, 0.446632, 0.108367
-0.142154, 0.44654, 0.10937
-0.137307, 0.446449, 0.110369
-0.132479, 0.446414, 0.110755
-0.127653, 0.446385, 0.111075
-0.122828, 0.446355, 0.111401
-0.118003, 0.446325, 0.111732
-0.113179, 0.446296, 0.112047
-0.108357, 0.44627, 0.112327
-0.103544, 0.446281, 0.112213
-0.0987362, 0.44632, 0.111786
-0.0939164, 0.446304, 0.111961
-0.0891079, 0.446342, 0.111543
-0.0843013, 0.446395, 0.110961
-0.0794928, 0.446444, 0.110423
-0.0747034, 0.446614, 0.108565
-0.0699145, 0.44681, 0.106413
-0.0651161, 0.44697, 0.104664
-0.0603057, 0.447066, 0.103617
-0.0554809, 0.447063, 0.103641
-0.0506566, 0.447064, 0.103628
-0.0458292, 0.447036, 0.10394
-0.0409981, 0.44696, 0.104773
-0.0361687, 0.446884, 0.105602
-0.0313408, 0.446808, 0.106436
-0.0265147, 0.446732, 0.107264
-0.0216902, 0.446656, 0.108097
-0.0168674, 0.446584, 0.108894
-0.0120465, 0.446526, 0.109528
-0.00722713, 0.446478, 0.110056
-0.00240872, 0.446424, 0.110639
0.00240843, 0.446372, 0.111216
0.00722455, 0.446318, 0.111799
0.0120395, 0.446266, 0.112376
0.0168534, 0.446213, 0.112957
0.021667, 0.446179, 0.113325
0.0264803, 0.446152, 0.113627
0.0312928, 0.446124, 0.113925
0.0361049, 0.446097, 0.114226
0.0409174, 0.44608, 0.114413
0.0457303, 0.446071, 0.114505
0.0505432, 0.446063, 0.114592
0.0553558, 0.446055, 0.114684
0.0601703, 0.446062, 0.114611
0.064991, 0.446112, 0.114064
0.0698131, 0.446162, 0.113513
0.0746362, 0.446212, 0.112966
0.0794604, 0.446262, 0.112414
0.0842856, 0.446312, 0.111866
0.0891119, 0.446362, 0.111324
0.0939416, 0.446424, 0.110647
0.0987967, 0.446593, 0.108789
0.10366, 0.446782, 0.106728
0.108527, 0.446969, 0.104671
0.113398, 0.447158, 0.102609
0.118273, 0.447345, 0.100552
0.123147, 0.447515, 0.0986981
0.12799, 0.447563, 0.0981636
0.132834, 0.447612, 0.0976338
0.13768, 0.44766, 0.0971093
0.142526, 0.447708, 0.0965791
0.147373, 0.447757, 0.0960436
0.152229, 0.447826, 0.095284
0.157068, 0.447846, 0.0950665
0.161908, 0.447866, 0.0948544
0.166749, 0.447885, 0.0946364
0.17159, 0.447905, 0.0944238
0.176442, 0.447953, 0.0938964
0.181301, 0.448014, 0.093225
0.186141, 0.448027, 0.0930858
0.190956, 0.44798, 0.0935984
0.195755, 0.447899, 0.0944834
0.200583, 0.447888, 0.0946069
0.205383, 0.447816, 0.0954022
0.210139, 0.447652, 0.0971971
0.214818, 0.447336, 0.100657
0.219494, 0.447028, 0.104033
0.224182, 0.446756, 0.107005
0.228934, 0.446622, 0.108469
0.233667, 0.446456, 0.110297
0.238396, 0.446289, 0.112118
0.243136, 0.446151, 0.113636
0.247913, 0.446083, 0.114373
0.252689, 0.446017, 0.115104
0.257464, 0.445949, 0.11584
0.262237, 0.445883, 0.11657
0.267007, 0.445814, 0.117325
0.271795, 0.445775, 0.117747
0.276592, 0.445755, 0.117974
0.281394, 0.445742, 0.118116
0.286197, 0.445729, 0.118254
0.291004, 0.445724, 0.118306
0.295851, 0.445781, 0.117688
0.300714, 0.445858, 0.116845
0.305578, 0.445935, 0.115997
0.310444, 0.446012, 0.115153
0.315315, 0.446095, 0.114245
0.32026, 0.446277, 0.112249
0.32521, 0.446461, 0.110238
0.330169, 0.446651, 0.108152
0.335132, 0.446842, 0.106061
0.340144, 0.447093, 0.103319
0.345253, 0.44746, 0.0992918
0.350368, 0.447827, 0.0952787
0.355484, 0.448184, 0.0913701
0.360557, 0.448477, 0.0881524
0.365614, 0.448745, 0.085228
0.370689, 0.449026, 0.08214
0.375771, 0.449309, 0.0790467
0.381, 0.449758, 0.074132
0.386654, 0.450691, 0.0639105
-0.242572, 0.460641, 0.0264931
-0.236868, 0.459085, 0.0432968
-0.231487, 0.4581, 0.0539303
-0.226182, 0.457229, 0.0633354
-0.221053, 0.456681, 0.0692549
-0.215898, 0.456054, 0.0760155
-0.210746, 0.455404, 0.0830398
-0.205681, 0.454919, 0.0882783
-0.200667, 0.454522, 0.0925574
-0.195726, 0.454278, 0.0951996
-0.190783, 0.454014, 0.0980458
-0.185869, 0.453809, 0.100259
-0.180997, 0.453699, 0.101444
-0.176132, 0.4536, 0.102514
-0.171278, 0.453525, 0.103329
-0.16643, 0.453462, 0.104011
-0.161588, 0.453412, 0.104547
-0.156746, 0.453358, 0.105128
-0.151896, 0.453276, 0.106012
-0.147047, 0.453195, 0.106892
-0.142198, 0.453106, 0.107846
-0.13735, 0.453013, 0.108854
-0.132516, 0.452965, 0.109369
-0.127692, 0.452944, 0.1096
-0.122865, 0.452915, 0.109916
-0.118039, 0.452885, 0.110237
-0.113214, 0.452855, 0.110561
-0.108389, 0.452825, 0.110881
-0.103571, 0.452822, 0.110918
-0.0987561, 0.452833, 0.110799
-0.0939409, 0.452843, 0.110685
-0.0891302, 0.452878, 0.110317
-0.08432, 0.452919, 0.109874
-0.0795142, 0.45299, 0.109107
-0.0747207, 0.453145, 0.107428
-0.0699148, 0.453241, 0.106392
-0.0651135, 0.453383, 0.104862
-0.0603004, 0.453458, 0.104044
-0.0554761, 0.453456, 0.104067
-0.0506514, 0.45345, 0.104136
-0.0458238, 0.453415, 0.104516
-0.040993, 0.453335, 0.10538
-0.036164, 0.453255, 0.106238
-0.0313365, 0.453175, 0.107101
-0.026511, 0.453096, 0.107959
-0.021687, 0.453017, 0.108812
-0.0168648, 0.452939, 0.10965
-0.0120443, 0.452868, 0.110422
-0.00722557, 0.452804, 0.11111
-0.00240815, 0.452741, 0.111792
0.00240781, 0.452678, 0.112469
0.00722265, 0.452621, 0.113081
0.0120364, 0.452567, 0.113668
0.0168489, 0.452513, 0.11425
0.0216614, 0.452483, 0.114577
0.0264735, 0.452455, 0.11488
0.0312848, 0.452426, 0.115187
0.0360956, 0.452399, 0.115489
0.0409058, 0.45237, 0.115795
0.0457155, 0.452342, 0.116096
0.0505266, 0.452333, 0.116193
0.0553377, 0.452325, 0.116284
0.0601513, 0.452337, 0.116152
0.0649706, 0.452388, 0.115605
0.0697911, 0.452439, 0.115054
0.0746126, 0.452489, 0.114507
0.0794352, 0.45254, 0.113965
0.0842582, 0.452587, 0.113457
0.0890816, 0.45263, 0.112985
0.0939059, 0.452675, 0.112507
0.098747, 0.452791, 0.111247
0.103597, 0.452935, 0.109693
0.108452, 0.453089, 0.108034
0.11332, 0.453279, 0.105982
0.118192, 0.453469, 0.103926
0.123066, 0.453654, 0.101933
0.127906, 0.453703, 0.101408
0.132747, 0.453752, 0.100879
0.137592, 0.453812, 0.100224
0.142451, 0.453912, 0.0991464
0.147312, 0.454011, 0.0980735
0.152171, 0.454097, 0.0971546
0.157008, 0.454116, 0.0969477
0.161847, 0.454136, 0.096725
0.166695, 0.454182, 0.0962286
0.17155, 0.454245, 0.0955472
0.176407, 0.454307, 0.0948815
0.181264, 0.454369, 0.0942097
0.186075, 0.454313, 0.0948167
0.190869, 0.45422, 0.0958166
0.195676, 0.454162, 0.0964532
0.200524, 0.454198, 0.0960593
0.205332, 0.454147, 0.0966153
0.21008, 0.453965, 0.0985789
0.214761, 0.453652, 0.10195
0.219436, 0.45334, 0.105325
0.224145, 0.453111, 0.107799
0.22888, 0.452942, 0.109622
0.233613, 0.452775, 0.111428
0.238344, 0.452612, 0.11318
0.243099, 0.452501, 0.114379
0.24788, 0.452441, 0.115026
0.25266, 0.452381, 0.115678
0.257438, 0.452321, 0.116323
0.262215, 0.452261, 0.116974
0.266997, 0.45221, 0.117521
0.271797, 0.452193, 0.117704
0.2766, 0.452181, 0.117842
0.281402, 0.452167, 0.117983
0.286212, 0.452167, 0.117991
0.291026, 0.452172, 0.117934
0.295873, 0.452228, 0.117326
0.300733, 0.452303, 0.116523
0.305597, 0.452379, 0.115695
0.310463, 0.452458, 0.114851
0.315331, 0.452536, 0.114003
0.320266, 0.452706, 0.112166
0.325215, 0.452892, 0.110156
0.330169, 0.453078, 0.108149
0.335128, 0.453266, 0.106118
0.340095, 0.45346, 0.104023
0.345203, 0.453834, 0.0999947
0.350317, 0.454204, 0.0959926
0.35544, 0.454576, 0.0919747
0.36054, 0.454909, 0.0883803
0.365617, 0.455205, 0.0851884
0.370703, 0.455504, 0.0819612
0.375796, 0.455804, 0.0787191
0.380968, 0.456191, 0.0745397
0.3864, 0.456876, 0.0671492
0.392452, 0.458267, 0.0521307
-0.24822, 0.468586, 0.0114741
-0.242347, 0.466743, 0.0310936
-0.2367, 0.465267, 0.0468116
-0.231419, 0.464462, 0.0553751
-0.226115, 0.463577, 0.0647993
-0.22095, 0.462943, 0.0715537
-0.215789, 0.462289, 0.0785127
-0.210655, 0.461666, 0.0851479
-0.205565, 0.46111, 0.0910621
-0.200622, 0.460867, 0.0936494
-0.195682, 0.460618, 0.0963016
-0.19074, 0.460351, 0.0991478
-0.18586, 0.460226, 0.100476
-0.180989, 0.460114, 0.10167
-0.176123, 0.460011, 0.10276
-0.171262, 0.459914, 0.103794
-0.166414, 0.45985, 0.104476
-0.161593, 0.459856, 0.104415
-0.156777, 0.459879, 0.10417
-0.151934, 0.459822, 0.104775
-0.14709, 0.459755, 0.105485
-0.142241, 0.459672, 0.106369
-0.137393, 0.459582, 0.107328
-0.132554, 0.459521, 0.107982
-0.127728, 0.459499, 0.108214
-0.122902, 0.459478, 0.108439
-0.118075, 0.459449, 0.10875
-0.113248, 0.459418, 0.109075
-0.108422, 0.459387, 0.109405
-0.103598, 0.459366, 0.10963
-0.0987821, 0.459377, 0.109511
-0.0939628, 0.459374, 0.109547
-0.0891455, 0.45938, 0.109477
-0.0843395, 0.459449, 0.108745
-0.0795333, 0.459526, 0.107929
-0.0747229, 0.459586, 0.107286
-0.0699153, 0.459673, 0.106359
-0.06511, 0.45979, 0.105118
-0.0602952, 0.459851, 0.10447
-0.0554705, 0.459842, 0.104563
-0.0506458, 0.459832, 0.10467
-0.0458188, 0.459796, 0.105051
-0.0409886, 0.459716, 0.105905
-0.0361601, 0.459635, 0.106763
-0.0313334, 0.459557, 0.107596
-0.0265085, 0.459479, 0.108425
-0.021685, 0.4594, 0.109267
-0.0168632, 0.459322, 0.110095
-0.0120432, 0.459249, 0.110877
-0.00722484, 0.459181, 0.111604
-0.00240789, 0.459114, 0.112316
0.00240756, 0.45905, 0.112993
0.00722178, 0.458986, 0.113675
0.0120347, 0.458923, 0.114352
0.0168462, 0.458859, 0.115023
0.0216576, 0.45882, 0.11544
0.0264682, 0.458782, 0.115851
0.0312778, 0.458742, 0.116268
0.0360868, 0.458704, 0.116679
0.0408952, 0.458669, 0.117055
0.0457037, 0.45864, 0.117357
0.0505114, 0.458612, 0.117662
0.0553195, 0.458591, 0.117883
0.0601323, 0.458609, 0.117691
0.0649501, 0.45866, 0.117145
0.0697682, 0.458706, 0.116652
0.0745871, 0.458751, 0.116176
0.0794069, 0.458795, 0.115704
0.0842277, 0.45884, 0.115225
0.0890494, 0.458885, 0.114753
0.0938719, 0.45893, 0.114275
0.0987119, 0.459051, 0.112985
0.103557, 0.459183, 0.111581
0.108408, 0.459327, 0.110042
0.113262, 0.459476, 0.108458
0.11812, 0.459624, 0.106879
0.122983, 0.45978, 0.105225
0.127833, 0.459876, 0.104203
0.132685, 0.459976, 0.103136
0.13754, 0.460077, 0.102063
0.142397, 0.460177, 0.100996
0.147257, 0.460278, 0.0999227
0.152112, 0.460361, 0.0990334
0.156957, 0.460407, 0.0985479
0.161808, 0.46047, 0.097877
0.166659, 0.460527, 0.0972714
0.171511, 0.460584, 0.0966601
0.176365, 0.460642, 0.0960441
0.181206, 0.460665, 0.0957999
0.185994, 0.460557, 0.0969539
0.190793, 0.460481, 0.097765
0.195616, 0.460463, 0.0979533
0.200457, 0.460487, 0.0976987
0.205257, 0.460421, 0.0984035
0.21002, 0.460274, 0.0999589
0.214725, 0.460009, 0.102782
0.219398, 0.459691, 0.106167
0.224123, 0.459492, 0.108292
0.228867, 0.45934, 0.109905
0.233601, 0.459175, 0.111662
0.238332, 0.459011, 0.113414
0.243094, 0.458909, 0.114493
0.247874, 0.458847, 0.115151
0.252654, 0.458787, 0.115792
0.257433, 0.458728, 0.116418
0.262217, 0.458679, 0.11694
0.267002, 0.458634, 0.117426
0.271805, 0.45862, 0.117569
0.276608, 0.458607, 0.117707
0.28142, 0.45861, 0.117681
0.286233, 0.458615, 0.117629
0.291047, 0.45862, 0.117572
0.295894, 0.458676, 0.116972
0.300756, 0.458753, 0.11616
0.305618, 0.458829, 0.115352
0.310482, 0.458904, 0.114549
0.315351, 0.458984, 0.1137
0.320271, 0.459136, 0.112082
0.325221, 0.459325, 0.110071
0.330175, 0.459513, 0.108065
0.335132, 0.459701, 0.106064
0.340094, 0.45989, 0.104049
0.345158, 0.460211, 0.100637
0.350283, 0.460602, 0.0964761
0.35541, 0.460985, 0.0923901
0.360516, 0.461331, 0.088706
0.365635, 0.461684, 0.0849481
0.370737, 0.462008, 0.0815029
0.375831, 0.462313, 0.0782609
0.380936, 0.462623, 0.0749559
0.386357, 0.463304, 0.0677052
0.392077, 0.464323, 0.0568566
-0.247912, 0.474551, 0.0176549
-0.242331, 0.473239, 0.031426
-0.236629, 0.471632, 0.048305
-0.231352, 0.470821, 0.056818
-0.226069, 0.469964, 0.0658135
-0.220847, 0.469199, 0.0738497
-0.215696, 0.468554, 0.0806189
-0.210574, 0.467942, 0.0870447
-0.205539, 0.467501, 0.0916758
-0.200578, 0.467209, 0.0947404
-0.195638, 0.466954, 0.0974121
-0.190728, 0.46676, 0.0994515
-0.185853, 0.466644, 0.10067
-0.180981, 0.466528, 0.101884
-0.176114, 0.466421, 0.103014
-0.171253, 0.466322, 0.104048
-0.166419, 0.466294, 0.104342
-0.161597, 0.466299, 0.104291
-0.156779, 0.466318, 0.104095
-0.151961, 0.466335, 0.103915
-0.147118, 0.466275, 0.104546
-0.142276, 0.466215, 0.10518
-0.137434, 0.466151, 0.10585
-0.132592, 0.46608, 0.106595
-0.127764, 0.466058, 0.106825
-0.122937, 0.466036, 0.107051
-0.11811, 0.466013, 0.107292
-0.113282, 0.465984, 0.107596
-0.108455, 0.465954, 0.107916
-0.103628, 0.465923, 0.108241
-0.0988055, 0.465912, 0.108352
-0.0939847, 0.465907, 0.108407
-0.0891641, 0.465902, 0.108456
-0.0843512, 0.46594, 0.108063
-0.0795394, 0.465988, 0.107556
-0.0747242, 0.466022, 0.107201
-0.0699179, 0.46612, 0.106175
-0.0651137, 0.466246, 0.104846
-0.0602964, 0.466292, 0.104366
-0.0554695, 0.466265, 0.104648
-0.0506439, 0.466246, 0.104855
-0.0458162, 0.4662, 0.105336
-0.0409855, 0.46611, 0.106278
-0.0361568, 0.466021, 0.107206
-0.0313305, 0.465942, 0.10804
-0.026506, 0.465862, 0.108877
-0.021683, 0.465783, 0.10971
-0.0168617, 0.465703, 0.110548
-0.0120421, 0.46563, 0.11132
-0.00722418, 0.46556, 0.112047
-0.00240766, 0.465491, 0.112779
0.0024073, 0.465421, 0.113516
0.00722101, 0.465356, 0.114197
0.0120334, 0.465291, 0.114873
0.0168445, 0.465228, 0.115535
0.0216554, 0.465189, 0.115942
0.0264655, 0.46515, 0.116354
0.0312746, 0.465111, 0.11677
0.0360831, 0.465071, 0.117181
0.0408908, 0.465033, 0.117587
0.0456977, 0.464994, 0.117997
0.0505036, 0.464953, 0.118423
0.0553083, 0.46491, 0.118873
0.0601166, 0.464901, 0.118968
0.064929, 0.464924, 0.118731
0.0697429, 0.464953, 0.118429
0.07456, 0.464998, 0.117952
0.0793781, 0.465043, 0.117479
0.0841971, 0.465089, 0.117002
0.089017, 0.465134, 0.116529
0.0938378, 0.465179, 0.116051
0.0986767, 0.465305, 0.114731
0.10352, 0.465439, 0.113327
0.108366, 0.465572, 0.111928
0.113217, 0.465717, 0.110403
0.118074, 0.465868, 0.108814
0.122933, 0.466019, 0.107231
0.127785, 0.466136, 0.106009
0.132638, 0.466242, 0.104892
0.137491, 0.466343, 0.10383
0.142346, 0.466445, 0.102762
0.147204, 0.466547, 0.10169
0.152062, 0.466645, 0.100661
0.156914, 0.466718, 0.0998969
0.161762, 0.466776, 0.0992866
0.166611, 0.466834, 0.0986805
0.171462, 0.466892, 0.0980687
0.176314, 0.46695, 0.0974627
0.181132, 0.466918, 0.097796
0.185922, 0.466817, 0.0988503
0.19072, 0.46674, 0.0996609
0.195556, 0.466759, 0.0994611
0.200375, 0.466736, 0.0997038
0.205178, 0.466678, 0.100309
0.209941, 0.466535, 0.101815
0.214683, 0.466353, 0.103723
0.219364, 0.466049, 0.106917
0.224088, 0.465847, 0.109043
0.228847, 0.465724, 0.110328
0.233591, 0.465576, 0.111886
0.238322, 0.465409, 0.113637
0.243087, 0.465316, 0.114617
0.247868, 0.465254, 0.115263
0.252651, 0.4652, 0.115835
0.257437, 0.46515, 0.116352
0.262221, 0.465101, 0.116873
0.267009, 0.46506, 0.117301
0.271813, 0.465049, 0.117413
0.276627, 0.465054, 0.117362
0.281441, 0.46506, 0.117306
0.286255, 0.465064, 0.117254
0.291069, 0.465069, 0.117207
0.295916, 0.465126, 0.116608
0.300778, 0.465203, 0.115805
0.305641, 0.465279, 0.114997
0.310505, 0.465357, 0.114184
0.315372, 0.465434, 0.113376
0.320278, 0.465567, 0.111976
0.325231, 0.465763, 0.109916
0.330188, 0.465959, 0.10786
0.33515, 0.466156, 0.10579
0.340113, 0.466349, 0.103765
0.345146, 0.466631, 0.100811
0.35027, 0.467027, 0.0966492
0.355382, 0.467395, 0.092782
0.360492, 0.467752, 0.0890393
0.365607, 0.468106, 0.0853214
0.370738, 0.46847, 0.0814996
0.375865, 0.468821, 0.0778112
0.380966, 0.46913, 0.0745664
0.386323, 0.469743, 0.06813
0.39185, 0.470545, 0.0597148
0.398051, 0.472126, 0.043118
-0.247768, 0.480818, 0.0205421
-0.242343, 0.47979, 0.0311894
-0.236618, 0.478115, 0.0485339
-0.231285, 0.477177, 0.0582495
-0.226022, 0.476347, 0.0668364
-0.220786, 0.475539, 0.0752096
-0.215626, 0.474861, 0.0822263
-0.210509, 0.474251, 0.088552
-0.205545, 0.473963, 0.0915322
-0.200534, 0.473551, 0.0957994
-0.195597, 0.473298, 0.0984211
-0.19072, 0.473179, 0.0996451
-0.185846, 0.473062, 0.100864
-0.180973, 0.472944, 0.102088
-0.176105, 0.472831, 0.103257
-0.17126, 0.472773, 0.103854
-0.166424, 0.47274, 0.104196
-0.161601, 0.472744, 0.104156
-0.156781, 0.472756, 0.10403
-0.151968, 0.472788, 0.1037
-0.147143, 0.472789, 0.103693
-0.142301, 0.472728, 0.104319
-0.137462, 0.472675, 0.104869
-0.132626, 0.472632, 0.105314
-0.127798, 0.472612, 0.105525
-0.122969, 0.472588, 0.105771
-0.118141, 0.472565, 0.106011
-0.113313, 0.47254, 0.106267
-0.108484, 0.472509, 0.106587
-0.103656, 0.472478, 0.106911
-0.098831, 0.47246, 0.107091
-0.0940074, 0.472447, 0.107226
-0.0891849, 0.472439, 0.107315
-0.0843632, 0.472434, 0.10737
-0.0795503, 0.472481, 0.106882
-0.0747348, 0.472517, 0.106508
-0.069927, 0.47261, 0.105542
-0.065121, 0.472731, 0.104291
-0.0603026, 0.472772, 0.103862
-0.0554726, 0.472723, 0.104373
-0.0506467, 0.472702, 0.10459
-0.0458181, 0.47265, 0.10513
-0.0409872, 0.472559, 0.106073
-0.0361582, 0.472468, 0.107011
-0.0313311, 0.472377, 0.107954
-0.0265059, 0.472287, 0.108891
-0.0216825, 0.472196, 0.109832
-0.0168609, 0.472106, 0.110759
-0.0120414, 0.472024, 0.111611
-0.00722355, 0.47194, 0.112478
-0.00240744, 0.471868, 0.11323
0.00240708, 0.471798, 0.113956
0.00722028, 0.471727, 0.114687
0.0120321, 0.471658, 0.115403
0.0168427, 0.471596, 0.116045
0.0216531, 0.471557, 0.116452
0.0264627, 0.471517, 0.116864
0.0312714, 0.471477, 0.11728
0.036079, 0.471433, 0.117731
0.0408859, 0.47139, 0.118176
0.0456919, 0.471348, 0.118617
0.0504969, 0.471305, 0.119061
0.0553011, 0.471261, 0.119512
0.0601093, 0.471257, 0.119558
0.0649207, 0.471277, 0.11935
0.0697329, 0.471298, 0.119127
0.0745459, 0.471322, 0.118879
0.0793592, 0.471346, 0.118636
0.084173, 0.471369, 0.118398
0.0889874, 0.471392, 0.118153
0.0938037, 0.471424, 0.117825
0.0986416, 0.471555, 0.116466
0.103483, 0.471691, 0.115061
0.108327, 0.471826, 0.113662
0.113174, 0.471962, 0.112257
0.118027, 0.472107, 0.110748
0.122884, 0.47226, 0.109164
0.127736, 0.472382, 0.107903
0.132588, 0.472495, 0.106737
0.137442, 0.472607, 0.105575
0.142296, 0.472711, 0.104498
0.147151, 0.472813, 0.103435
0.152009, 0.472917, 0.102366
0.15686, 0.472992, 0.101583
0.161712, 0.473069, 0.100792
0.166563, 0.473137, 0.100087
0.171413, 0.473196, 0.0994763
0.176263, 0.473254, 0.0988693
0.181059, 0.473167, 0.0997701
0.18585, 0.473073, 0.100744
0.190654, 0.473014, 0.101356
0.195476, 0.473003, 0.101474
0.200293, 0.472981, 0.101697
0.205097, 0.472931, 0.102223
0.209862, 0.472792, 0.103658
0.214603, 0.472608, 0.105566
0.21933, 0.472404, 0.107676
0.224054, 0.4722, 0.109792
0.228812, 0.472076, 0.111076
0.233568, 0.471952, 0.112355
0.238311, 0.471807, 0.113857
0.243082, 0.471723, 0.114728
0.247869, 0.471673, 0.115245
0.252655, 0.471623, 0.115768
0.25744, 0.471572, 0.116294
0.262224, 0.471521, 0.116815
0.267019, 0.471494, 0.117103
0.271834, 0.471499, 0.117047
0.276647, 0.471503, 0.117006
0.281461, 0.471508, 0.11696
0.286276, 0.471513, 0.116908
0.29109, 0.471517, 0.11686
