-0.0049831, 0.0863734, -0.0573821
0.00498609, 0.0864252, -0.0604148
0.393465, 0.0841984, 0.069973
0.402397, 0.0840347, 0.0795598
0.411836, 0.0839823, 0.0826254
0.42162, 0.084001, 0.0815301
0.431857, 0.0841069, 0.0753298
-0.450758, 0.0969372, 0.0808702
-0.440441, 0.0968001, 0.0878282
-0.430219, 0.0966785, 0.0940008
-0.420566, 0.0966818, 0.093832
-0.411229, 0.0967598, 0.0898728
-0.402586, 0.0970088, 0.07724
-0.0349098, 0.0997424, -0.0614772
-0.0249056, 0.0996224, -0.055387
-0.0149448, 0.0996318, -0.0558686
-0.00498478, 0.0996953, -0.0590878
0.00498791, 0.0997579, -0.0622649
0.393009, 0.0970394, 0.0756869
0.402208, 0.0969176, 0.0818677
0.411714, 0.0968739, 0.084084
0.421549, 0.0969079, 0.0823588
0.43176, 0.0970246, 0.076437
0.442308, 0.0972105, 0.0670033
0.583182, 0.0996892, -0.0587802
0.592719, 0.0996166, -0.0550952
-0.441321, 0.109926, 0.0780082
-0.430614, 0.109669, 0.0895019
-0.420782, 0.109629, 0.0913119
-0.411385, 0.109703, 0.0880151
-0.402421, 0.109898, 0.0792637
-0.393055, 0.109991, 0.0751143
-0.0349174, 0.113066, -0.0625672
-0.0249136, 0.112941, -0.0570102
-0.0149544, 0.112989, -0.0591207
-0.00498829, 0.113067, -0.0626521
0.39326, 0.110048, 0.0725498
0.402197, 0.109837, 0.0820036
0.411707, 0.109788, 0.0841718
0.421617, 0.109846, 0.0815701
0.431932, 0.110005, 0.0744691
0.554239, 0.113178, -0.0675955
0.563492, 0.113031, -0.0610056
0.572685, 0.112877, -0.054121
0.581943, 0.112741, -0.0480366
0.591569, 0.11268, -0.0452871
0.601695, 0.112714, -0.0468311
0.611877, 0.112758, -0.0487809
0.622138, 0.112814, -0.0513163
-0.431509, 0.122827, 0.0792904
-0.421389, 0.122703, 0.084229
-0.411413, 0.122617, 0.0876751
-0.401895, 0.122667, 0.0856895
-0.392666, 0.122809, 0.0799847
-0.383348, 0.12293, 0.0751467
-0.373817, 0.122987, 0.0728507
-0.0349134, 0.126353, -0.0619874
-0.0249217, 0.12627, -0.0586553
-0.0149632, 0.126355, -0.0620866
-0.00498895, 0.126386, -0.0633154
0.393227, 0.122984, 0.0729618
0.402287, 0.122786, 0.0808973
0.411881, 0.122757, 0.0820889
0.421957, 0.122869, 0.0776029
0.432236, 0.123033, 0.0710001
0.523557, 0.126318, -0.0606012
0.533022, 0.126198, -0.0557885
0.543389, 0.126292, -0.0595517
0.553024, 0.126216, -0.0564823
0.562536, 0.126114, -0.0524211
0.572095, 0.126027, -0.0489087
0.581473, 0.125903, -0.0439558
0.590964, 0.125807, -0.0401311
0.600735, 0.125774, -0.038775
0.610584, 0.125757, -0.0381155
0.621044, 0.125865, -0.0424275
0.632344, 0.126137, -0.0533228
-0.411803, 0.135653, 0.083025
-0.401803, 0.135548, 0.0868158
-0.392172, 0.135566, 0.0861735
-0.382762, 0.135663, 0.082665
-0.373396, 0.13578, 0.0783963
-0.364192, 0.135965, 0.0717087
-0.0449387, 0.139809, -0.0676379
-0.0349073, 0.139629, -0.0611062
-0.0249308, 0.139612, -0.0605054
-0.014967, 0.139691, -0.0633564
0.393159, 0.135907, 0.0738149
0.402435, 0.135761, 0.0790873
0.412145, 0.135765, 0.0789394
0.422467, 0.135966, 0.0716529
0.513593, 0.139618, -0.0606933
0.522802, 0.139414, -0.0533032
0.532569, 0.139364, -0.0514979
0.542594, 0.139382, -0.0521483
0.552725, 0.139426, -0.0537477
0.56269, 0.139427, -0.0538001
0.572563, 0.139407, -0.0530472
0.581467, 0.139155, -0.0439086
0.590695, 0.138987, -0.0378394
0.600542, 0.138968, -0.0371594
0.612269, 0.139378, -0.0520158
0.623234, 0.139604, -0.0602136
-0.402191, 0.148601, 0.0820775
-0.391983, 0.148405, 0.0885496
-0.382372, 0.148431, 0.0876846
-0.372904, 0.148516, 0.0848775
-0.363681, 0.148705, 0.0786223
-0.35435, 0.148859, 0.0735135
-0.0449202, 0.153061, -0.0655489
-0.0349035, 0.152911, -0.060565
-0.0249396, 0.152963, -0.0622931
-0.0149695, 0.153021, -0.0642233
0.39304, 0.148805, 0.0753074
0.402452, 0.148697, 0.078887
0.412401, 0.148788, 0.075881
0.422684, 0.148992, 0.0691218
0.504185, 0.153086, -0.0663633
0.5131, 0.152768, -0.0558295
0.522576, 0.152625, -0.0511241
0.532354, 0.152575, -0.0494533
0.542529, 0.152638, -0.0515423
0.553075, 0.152801, -0.0569501
0.563504, 0.152927, -0.0611105
0.582989, 0.152806, -0.0571074
0.592063, 0.152577, -0.0495071
0.602971, 0.152819, -0.0575361
-0.402433, 0.16162, 0.079113
-0.392508, 0.161526, 0.0819688
-0.382459, 0.161375, 0.0865564
-0.372688, 0.161337, 0.0877233
-0.363192, 0.161418, 0.0852418
-0.353968, 0.161629, 0.0788279
-0.344552, 0.161761, 0.0747995
-0.05494, 0.166485, -0.0690188
-0.0449022, 0.166304, -0.0635133
-0.0349016, 0.166198, -0.0602832
-0.0249462, 0.166308, -0.0636282
-0.0149714, 0.166349, -0.0648718
0.383717, 0.161906, 0.0704017
0.392879, 0.161679, 0.0773211
0.402403, 0.161608, 0.0794816
0.412598, 0.161803, 0.0735292
0.422688, 0.161949, 0.0690727
0.503762, 0.166258, -0.0621095
0.512895, 0.165985, -0.053812
0.52247, 0.165863, -0.0500989
0.532448, 0.165872, -0.050344
0.542827, 0.166002, -0.0543146
0.553824, 0.166313, -0.0637999
-0.383002, 0.174532, 0.0795894
-0.373009, 0.174394, 0.0835028
-0.363111, 0.174293, 0.0863309
-0.353474, 0.174316, 0.0856962
-0.344202, 0.174525, 0.0798011
-0.334795, 0.174676, 0.0755506
-0.325346, 0.174813, 0.0716801
-0.0549052, 0.17969, -0.0658035
-0.0448777, 0.179511, -0.0607538
-0.0349007, 0.179489, -0.0601501
-0.0249496, 0.179638, -0.0643339
0.383553, 0.174783, 0.0725117
0.392731, 0.174547, 0.0791769
0.402374, 0.174524, 0.0798373
0.412753, 0.174813, 0.0716801
0.423077, 0.175066, 0.0645332
0.494228, 0.179719, -0.0666409
0.503325, 0.179403, -0.0577197
0.51274, 0.17921, -0.0522799
0.522584, 0.179172, -0.0512047
0.532811, 0.179263, -0.0537877
0.543263, 0.179426, -0.0583782
-0.363475, 0.187392, 0.0814056
-0.3535, 0.187242, 0.0853353
-0.343774, 0.18722, 0.0859141
-0.334406, 0.187397, 0.0812721
-0.325045, 0.187588, 0.076242
-0.315439, 0.187646, 0.0747366
-0.0648722, 0.192953, -0.0645704
-0.0548585, 0.192836, -0.0614958
-0.0448496, 0.192687, -0.0575867
-0.0348905, 0.192728, -0.0586672
-0.0249462, 0.192917, -0.0636301
0.383273, 0.187593, 0.0761085
0.392603, 0.187415, 0.0807819
0.402495, 0.187508, 0.078352
0.412839, 0.187801, 0.0706515
0.493636, 0.1928, -0.0605664
0.502995, 0.192566, -0.0544019
0.512795, 0.192506, -0.0528288
0.523, 0.192597, -0.0552225
0.533185, 0.192677, -0.0573363
-0.353712, 0.200275, 0.0823903
-0.343889, 0.200199, 0.084269
-0.334065, 0.200116, 0.0862918
-0.324557, 0.200224, 0.0836377
-0.315214, 0.200444, 0.0782404
-0.305671, 0.200546, 0.0757318
-0.0648616, 0.206227, -0.0637474
-0.0548032, 0.205927, -0.0563941
-0.0448125, 0.205805, -0.0534048
-0.0348679, 0.205886, -0.0553942
-0.0249372, 0.206148, -0.0618153
0.373904, 0.20071, 0.0716977
0.383016, 0.200396, 0.079411
0.392503, 0.200289, 0.082037
0.402615, 0.200499, 0.0768929
0.412988, 0.200825, 0.0688772
0.48368, 0.206104, -0.0607424
0.493183, 0.205908, -0.0559268
0.502876, 0.205798, -0.0532112
0.513073, 0.205893, -0.0555668
0.523145, 0.205937, -0.0566239
-0.34411, 0.213251, 0.0811205
-0.334271, 0.213159, 0.0832548
-0.324368, 0.213018, 0.0864978
-0.314686, 0.213018, 0.0864973
-0.305181, 0.213142, 0.0836244
-0.295804, 0.213367, 0.0784459
-0.286262, 0.213484, 0.0757565
-0.0748587, 0.219585, -0.06499
-0.0648062, 0.219344, -0.0594206
-0.0547734, 0.219094, -0.0536442
-0.0447997, 0.219021, -0.051959
-0.0348579, 0.219107, -0.0539474
-0.0249311, 0.219394, -0.0605655
0.373516, 0.213438, 0.0768132
0.382794, 0.213202, 0.0822587
0.392423, 0.213168, 0.0830336
0.402751, 0.213507, 0.0752215
0.412759, 0.213663, 0.0716076
0.474154, 0.219608, -0.0655098
0.48339, 0.21927, -0.057703
0.492913, 0.219072, -0.0531573
0.503019, 0.219137, -0.0546451
0.513228, 0.219243, -0.0570931
0.523346, 0.219307, -0.0585637
-0.33447, 0.226212, 0.0803323
-0.324613, 0.226099, 0.0827875
-0.314617, 0.225879, 0.0875645
-0.304756, 0.225745, 0.0904717
-0.295112, 0.225769, 0.0899668
-0.28571, 0.225985, 0.0852561
-0.276405, 0.226297, 0.0784807
-0.267234, 0.226744, 0.0687585
-0.0748672, 0.23292, -0.0655618
-0.0647866, 0.232567, -0.057889
-0.0547727, 0.232369, -0.0535784
-0.0448134, 0.232366, -0.0535073
-0.0348731, 0.232487, -0.0561452
-0.02492, 0.232587, -0.0583148
0.363846, 0.226393, 0.0763836
0.373082, 0.22611, 0.0825405
0.382398, 0.225889, 0.0873451
0.392264, 0.225996, 0.0850248
0.40272, 0.226429, 0.075603
0.412722, 0.226593, 0.0720468
0.473428, 0.232561, -0.0577569
0.482958, 0.232351, -0.0531907
0.492941, 0.232363, -0.0534382
0.503242, 0.232521, -0.0568895
0.513276, 0.232552, -0.0575652
-0.324882, 0.239216, 0.0787201
-0.314808, 0.238931, 0.0845923
-0.304797, 0.238677, 0.089818
-0.29495, 0.238539, 0.0926595
-0.285332, 0.238582, 0.0917621
-0.275986, 0.238865, 0.0859394
-0.266817, 0.239327, 0.0764418
-0.257341, 0.239537, 0.0721154
-0.084888, 0.246342, -0.0678663
-0.0748235, 0.246086, -0.0626078
-0.0647694, 0.245792, -0.05655
-0.0547795, 0.245678, -0.0542107
-0.0448321, 0.245746, -0.0556149
-0.0348888, 0.245883, -0.0584269
0.354199, 0.239367, 0.0756207
0.363467, 0.23908, 0.0815206
0.372627, 0.238739, 0.0885372
0.382111, 0.238618, 0.091033
0.392157, 0.238845, 0.0863676
0.402566, 0.239276, 0.0774889
0.412654, 0.239501, 0.0728621
0.463596, 0.245922, -0.0592318
0.473032, 0.245645, -0.0535293
0.482885, 0.245591, -0.0524182
0.493211, 0.245775, -0.0562072
0.503201, 0.245788, -0.0564728
-0.315185, 0.252148, 0.0786948
-0.305203, 0.251914, 0.0832725
-0.295173, 0.251623, 0.0889449
-0.285321, 0.251469, 0.0919533
-0.27575, 0.251562, 0.0901423
-0.266255, 0.251732, 0.0868144
-0.256829, 0.251983, 0.0819135
-0.247408, 0.252259, 0.0765271
-0.0848436, 0.259522, -0.0652194
-0.0747638, 0.259181, -0.0585647
-0.064741, 0.258964, -0.0543337
-0.054773, 0.258927, -0.0536151
-0.0448364, 0.259055, -0.0560994
-0.0349039, 0.259286, -0.060617
0.344766, 0.252504, 0.071743
0.3539, 0.252093, 0.0797706
0.362981, 0.251667, 0.0880837
0.372384, 0.25148, 0.0917335
0.382207, 0.25158, 0.0897942
0.392361, 0.251886, 0.0838127
0.402644, 0.252259, 0.0765343
0.412653, 0.252446, 0.072875
0.45367, 0.25924, -0.0597153
0.463046, 0.258907, -0.0532255
0.472837, 0.258816, -0.0514412
0.48309, 0.258976, -0.0545664
0.493249, 0.25908, -0.0565987
0.50322, 0.259083, -0.0566621
-0.305523, 0.26511, 0.0781245
-0.295651, 0.264955, 0.0810018
-0.285669, 0.264688, 0.0859556
-0.275774, 0.264485, 0.0897269
-0.266028, 0.264416, 0.0910044
-0.256393, 0.264456, 0.0902672
-0.24687, 0.264619, 0.087234
-0.237537, 0.265007, 0.0800266
-0.228113, 0.265322, 0.074172
-0.0948246, 0.272829, -0.0651846
-0.0847281, 0.272459, -0.0583215
-0.0747009, 0.272243, -0.0543118
-0.0647168, 0.272142, -0.0524397
-0.0547735, 0.272208, -0.0536551
-0.044845, 0.272392, -0.0570707
-0.0349569, 0.272997, -0.0683026
0.334319, 0.264871, 0.0825529
0.343886, 0.264776, 0.0843124
0.35322, 0.264512, 0.0892191
0.36276, 0.264412, 0.0910769
0.372553, 0.264496, 0.0895123
0.382568, 0.26473, 0.0851626
0.392623, 0.26498, 0.0805287
0.402668, 0.265211, 0.0762391
0.412808, 0.265492, 0.0710263
0.434057, 0.27274, -0.0635467
0.443423, 0.272364, -0.0565634
0.452805, 0.272015, -0.050077
0.462614, 0.271931, -0.0485134
0.47282, 0.272079, -0.0512662
0.483192, 0.272314, -0.055634
0.493194, 0.272336, -0.0560341
-0.28595, 0.277873, 0.0811205
-0.275971, 0.277585, 0.0862079
-0.266071, 0.277359, 0.0902052
-0.256268, 0.27722, 0.0926652
-0.246585, 0.277206, 0.0929174
-0.237006, 0.277313, 0.091033
-0.22754, 0.277566, 0.086544
-0.218098, 0.277873, 0.0811043
-0.2086, 0.278133, 0.0765095
-0.104908, 0.286416, -0.0701132
-0.0947013, 0.285765, -0.0585947
-0.0846475, 0.285478, -0.0535083
-0.0746542, 0.285345, -0.0511537
-0.0647013, 0.285349, -0.05123
-0.0547783, 0.285511, -0.0540953
-0.0448658, 0.285811, -0.0594125
0.315263, 0.278078, 0.0774875
0.324414, 0.277608, 0.0858078
0.333731, 0.277303, 0.091207
0.343139, 0.277088, 0.0950012
0.352729, 0.277029, 0.0960546
0.36256, 0.277157, 0.0937891
0.372635, 0.27746, 0.0884285
0.382921, 0.2779, 0.0806251
0.393015, 0.278183, 0.0756216
0.402839, 0.278266, 0.0741525
0.423563, 0.285697, -0.0573888
0.433162, 0.285455, -0.0531063
0.442559, 0.285094, -0.0467196
0.452359, 0.285003, -0.0451012
0.462556, 0.28516, -0.0478845
0.472829, 0.285356, -0.0513554
0.483086, 0.285536, -0.0545297
0.493159, 0.285601, -0.0556817
-0.276098, 0.29063, 0.0839438
-0.266126, 0.290319, 0.0892076
-0.256304, 0.290155, 0.0919704
-0.246465, 0.289959, 0.0952883
-0.236781, 0.289936, 0.0956826
-0.227179, 0.290016, 0.094326
-0.217668, 0.290223, 0.0908213
-0.208231, 0.290555, 0.0852103
-0.198822, 0.290959, 0.0783834
-0.18948, 0.291507, 0.0691023
-0.114912, 0.299771, -0.0706773
-0.104736, 0.299245, -0.0617881
-0.0946023, 0.298744, -0.053309
-0.0845879, 0.298546, -0.0499506
-0.0746249, 0.298499, -0.0491662
-0.0646898, 0.298568, -0.0503311
-0.0547709, 0.29875, -0.0534129
-0.0448773, 0.299181, -0.0607047
0.304969, 0.290447, 0.0870376
0.314343, 0.290163, 0.0918503
0.323631, 0.289818, 0.0976715
0.333084, 0.289639, 0.100711
0.342682, 0.289591, 0.101521
0.352447, 0.289682, 0.0999727
0.362379, 0.289903, 0.0962353
0.372622, 0.290355, 0.0885959
0.383127, 0.290983, 0.0779786
0.403553, 0.298928, -0.0564194
0.413145, 0.298659, -0.0518703
0.422887, 0.298508, -0.0493169
0.432657, 0.298384, -0.0472174
0.442467, 0.298292, -0.0456681
0.452461, 0.298326, -0.0462375
0.462648, 0.298482, -0.0488834
0.472868, 0.298654, -0.0517774
0.483148, 0.298854, -0.0551753
-0.276427, 0.303908, 0.0780954
-0.266251, 0.303365, 0.0868945
-0.256211, 0.302941, 0.0937538
-0.246468, 0.30285, 0.0952306
-0.236682, 0.302695, 0.097743
-0.226983, 0.302644, 0.0985599
-0.217374, 0.302714, 0.0974364
-0.207826, 0.302878, 0.094779
-0.198345, 0.303161, 0.0901875
-0.188945, 0.303604, 0.0830135
-0.179529, 0.304067, 0.075521
-0.169997, 0.304375, 0.0705261
-0.160372, 0.304545, 0.0677752
-0.150838, 0.304919, 0.0617237
-0.141316, 0.305372, 0.0543885
-0.125073, 0.313515, -0.0775027
-0.11483, 0.312869, -0.0670314
-0.104611, 0.312173, -0.0557613
-0.0945388, 0.311812, -0.0499139
-0.0845458, 0.311659, -0.0474353
-0.0745949, 0.311641, -0.0471401
-0.0646712, 0.311749, -0.0488863
-0.054766, 0.312, -0.0529656
-0.0448783, 0.312485, -0.0608182
0.28554, 0.303285, 0.088181
0.295123, 0.303187, 0.0897722
0.304287, 0.302677, 0.0980377
0.313643, 0.302384, 0.102771
0.323121, 0.302222, 0.105395
0.33276, 0.302217, 0.105484
0.342516, 0.302314, 0.103908
0.352335, 0.302461, 0.101527
0.362369, 0.302779, 0.096375
0.372968, 0.303541, 0.084034
0.39032, 0.309621, -0.014431
0.402608, 0.311482, -0.0445747
0.412576, 0.311503, -0.044909
0.422686, 0.311627, -0.0469227
0.432816, 0.31176, -0.0490746
0.442912, 0.311863, -0.0507426
0.452873, 0.311868, -0.0508289
0.462805, 0.311855, -0.0506034
0.472954, 0.311984, -0.0526967
0.483131, 0.312126, -0.0550013
-0.266424, 0.316479, 0.0837049
-0.256318, 0.315965, 0.0916986
-0.246345, 0.315579, 0.0976801
-0.236623, 0.315498, 0.0989532
-0.226928, 0.315446, 0.0997558
-0.217223, 0.315375, 0.100849
-0.20758, 0.315393, 0.100577
-0.197999, 0.315511, 0.0987396
-0.188478, 0.31574, 0.0951824
-0.179037, 0.316137, 0.0890255
-0.169579, 0.316548, 0.0826354
-0.160059, 0.316885, 0.0774055
-0.150514, 0.317211, 0.0723305
-0.140968, 0.317584, 0.0665431
-0.131415, 0.317991, 0.0602188
-0.121859, 0.318459, 0.0529523
-0.113454, 0.322274, -0.00631523
-0.10402, 0.323617, -0.0271711
-0.0944677, 0.324836, -0.0461202
-0.0844954, 0.324727, -0.0444279
-0.0745593, 0.324747, -0.0447302
-0.0646453, 0.324884, -0.0468631
-0.0547596, 0.325239, -0.052371
-0.0449117, 0.326025, -0.0645885
0.26658, 0.316665, 0.0808148
0.275649, 0.315948, 0.0919476
0.285002, 0.315596, 0.0974298
0.294362, 0.315273, 0.102445
0.30377, 0.315021, 0.106361
0.313285, 0.314892, 0.108359
0.322946, 0.314912, 0.108047
0.332703, 0.315023, 0.10633
0.34253, 0.315192, 0.103698
0.352497, 0.315477, 0.0992708
0.362898, 0.316125, 0.0892076
0.38014, 0.322543, -0.010499
0.392448, 0.324556, -0.0417676
0.402552, 0.324692, -0.0438747
0.41276, 0.324903, -0.0471582
0.422969, 0.325105, -0.0502996
0.43312, 0.325255, -0.0526199
0.443215, 0.325356, -0.0541992
0.453286, 0.325436, -0.0554395
0.463051, 0.325298, -0.0532875
0.473395, 0.325563, -0.0574002
-0.256738, 0.3294, 0.0836515
-0.246496, 0.328662, 0.0946741
-0.236562, 0.32829, 0.100228
-0.226837, 0.32819, 0.10172
-0.217182, 0.328187, 0.101764
-0.207505, 0.328148, 0.102343
-0.197828, 0.328105, 0.102987
-0.188223, 0.328184, 0.101806
-0.178672, 0.328371, 0.0990195
-0.169156, 0.328647, 0.0948968
-0.159628, 0.328931, 0.0906534
-0.150105, 0.329262, 0.0857124
-0.140579, 0.329634, 0.0801568
-0.131046, 0.330041, 0.0740805
-0.121495, 0.330468, 0.0677185
-0.11188, 0.330775, 0.0631309
-0.102264, 0.331141, 0.0576639
-0.0926634, 0.331637, 0.0502629
-0.0836545, 0.334618, 0.00577116
-0.0739134, 0.335074, -0.0010252
-0.0641147, 0.335369, -0.00543547
-0.0543089, 0.335728, -0.0107946
-0.0440584, 0.332885, 0.0316339
-0.0342632, 0.332842, 0.0322757
-0.0245505, 0.333886, 0.0166936
-0.014714, 0.333516, 0.0222173
-0.00490303, 0.333405, 0.0238795
0.00490106, 0.33327, 0.025887
0.0146969, 0.333127, 0.0280218
0.0244881, 0.333038, 0.0293498
0.0342889, 0.333092, 0.0285516
0.0440945, 0.333158, 0.0275707
0.0538973, 0.333183, 0.0271859
0.0637158, 0.333283, 0.025702
0.0736528, 0.333892, 0.0166035
0.0832963, 0.333185, 0.0271602
0.0932466, 0.333725, 0.0191078
0.103255, 0.334348, 0.00980377
0.256322, 0.328866, 0.0916181
0.265815, 0.328644, 0.0949435
0.275088, 0.328175, 0.101941
0.284491, 0.327888, 0.106223
0.293964, 0.327697, 0.109067
0.303519, 0.327608, 0.110401
0.313194, 0.327649, 0.109781
0.322967, 0.327787, 0.107724
0.332857, 0.328033, 0.104061
0.342863, 0.328376, 0.0989375
0.35303, 0.32885, 0.091866
0.365553, 0.331434, 0.0532899
0.382561, 0.337846, -0.042398
0.392689, 0.338011, -0.0448656
0.402896, 0.338233, -0.0481834
0.413102, 0.338445, -0.0513411
0.423258, 0.338606, -0.0537534
0.433375, 0.33873, -0.0555925
0.443427, 0.338798, -0.0566106
-0.246975, 0.342214, 0.085146
-0.236762, 0.341453, 0.0960784
-0.226847, 0.341075, 0.101502
-0.217112, 0.340946, 0.10335
-0.20745, 0.340925, 0.103657
-0.197794, 0.340913, 0.103824
-0.188115, 0.340858, 0.104622
-0.178487, 0.340893, 0.104108
-0.168891, 0.340998, 0.102604
-0.159301, 0.34113, 0.100709
-0.149717, 0.341291, 0.0983953
-0.140159, 0.341538, 0.0948558
-0.130605, 0.341831, 0.0906386
-0.121057, 0.342187, 0.0855312
-0.111528, 0.342666, 0.0786529
-0.101918, 0.342963, 0.0743923
-0.0922431, 0.34308, 0.0727105
-0.0825863, 0.3433, 0.0695443
-0.0729164, 0.343517, 0.0664301
-0.0632321, 0.343723, 0.0634689
-0.053551, 0.344025, 0.0591369
-0.0438468, 0.344278, 0.0555005
-0.0341158, 0.344407, 0.0536427
-0.0243776, 0.344537, 0.0517802
-0.0146271, 0.344548, 0.0516248
-0.00487499, 0.344498, 0.0523434
0.0048743, 0.344449, 0.0530443
0.0146211, 0.344407, 0.0536494
0.0243651, 0.344361, 0.0543113
0.034106, 0.344308, 0.0550699
0.0438462, 0.344273, 0.0555701
0.0535859, 0.344249, 0.0559201
0.0633488, 0.344357, 0.0543618
0.0731308, 0.344527, 0.0519218
0.0829228, 0.344699, 0.0494561
0.0927381, 0.344921, 0.0462694
0.102629, 0.345355, 0.0400352
0.112622, 0.346027, 0.030385
0.122571, 0.346468, 0.0240436
0.132493, 0.346773, 0.019671
0.142763, 0.347883, 0.00372124
0.246692, 0.341822, 0.090775
0.255962, 0.341283, 0.0985174
0.265263, 0.340823, 0.105116
0.274685, 0.340545, 0.10911
0.284182, 0.340376, 0.111537
0.293755, 0.340307, 0.112537
0.303412, 0.340335, 0.112127
0.31319, 0.340493, 0.109857
0.323072, 0.340752, 0.106135
0.333044, 0.341089, 0.101302
0.343062, 0.341451, 0.0960946
0.35307, 0.341785, 0.0913053
0.365755, 0.344622, 0.0505543
0.382493, 0.351032, -0.0415053
0.392795, 0.351361, -0.0462255
0.403067, 0.351647, -0.0503325
0.413336, 0.351916, -0.0541983
0.42366, 0.352219, -0.0585504
-0.237143, 0.354908, 0.088182
-0.227068, 0.35429, 0.0967317
-0.217194, 0.353945, 0.101509
-0.207457, 0.353802, 0.103487
-0.197764, 0.353724, 0.104576
-0.188086, 0.353666, 0.105374
-0.178423, 0.353631, 0.105857
-0.168761, 0.353594, 0.106374
-0.159119, 0.353597, 0.10633
-0.149485, 0.353622, 0.105988
-0.139861, 0.353673, 0.105281
-0.130276, 0.353837, 0.103013
-0.120705, 0.354068, 0.0998158
-0.11115, 0.354392, 0.0953302
-0.101623, 0.354875, 0.0886478
-0.0920554, 0.355302, 0.082737
-0.082379, 0.355361, 0.0819197
-0.072715, 0.355495, 0.0800576
-0.0630512, 0.355673, 0.0775933
-0.0533782, 0.355855, 0.0750761
-0.0436956, 0.356038, 0.0725446
-0.0340042, 0.356234, 0.0698328
-0.0243012, 0.356419, 0.0672774
-0.0145807, 0.356415, 0.0673313
-0.00485953, 0.356364, 0.0680351
0.00485881, 0.356311, 0.0687633
0.014574, 0.356252, 0.0695906
0.0242854, 0.356186, 0.0704913
0.0339934, 0.356121, 0.0713987
0.0436974, 0.356052, 0.0723453
0.0534002, 0.356002, 0.0730486
0.0631198, 0.35606, 0.072238
0.0728479, 0.356145, 0.0710669
0.082582, 0.356236, 0.0698051
0.092336, 0.356384, 0.0677509
0.102146, 0.356699, 0.0634041
0.111974, 0.357018, 0.0589895
0.121835, 0.357384, 0.0539241
0.131756, 0.357856, 0.0473819
0.141737, 0.358416, 0.0396318
0.151855, 0.359226, 0.028419
0.16192, 0.359821, 0.0201874
0.172046, 0.360477, 0.0111141
0.183492, 0.363677, -0.0331783
0.237611, 0.355608, 0.0784984
0.246473, 0.354406, 0.0951376
0.25563, 0.353702, 0.10487
0.265025, 0.353366, 0.109519
0.274487, 0.353141, 0.112638
0.284022, 0.353022, 0.114287
0.29361, 0.352974, 0.114949
0.303274, 0.353018, 0.114346
0.313077, 0.353215, 0.111617
0.322943, 0.353469, 0.108094
0.33291, 0.353817, 0.103278
0.342975, 0.354247, 0.0973353
0.352983, 0.354595, 0.0925145
0.363209, 0.355138, 0.0850029
0.379832, 0.361745, -0.00643444
0.392283, 0.364145, -0.0396461
0.402944, 0.364805, -0.0487924
0.413412, 0.365263, -0.0551286
-0.227379, 0.367677, 0.0900111
-0.217439, 0.367231, 0.0959649
-0.207605, 0.36693, 0.0999851
-0.19783, 0.366709, 0.10294
-0.188088, 0.36653, 0.105327
-0.178338, 0.366316, 0.10819
-0.168642, 0.366195, 0.109803
-0.158995, 0.366171, 0.110118
-0.149364, 0.366183, 0.109968
-0.139746, 0.36623, 0.109334
-0.130134, 0.366303, 0.108355
-0.120541, 0.366444, 0.106472
-0.110949, 0.366613, 0.104223
-0.101364, 0.366839, 0.101197
-0.0918203, 0.367281, 0.0952973
-0.0822424, 0.367672, 0.0900784
-0.0725744, 0.36771, 0.0895705
-0.0629135, 0.367802, 0.0883389
-0.0532528, 0.367929, 0.086647
-0.0435898, 0.368091, 0.0844808
-0.0339194, 0.368267, 0.0821285
-0.0242384, 0.368424, 0.0800343
-0.0145422, 0.368401, 0.0803409
-0.00484653, 0.368335, 0.0812292
0.00484555, 0.368261, 0.0822167
0.0145337, 0.368186, 0.0832105
0.0242185, 0.368121, 0.0840831
0.0338995, 0.368052, 0.0850058
0.0435768, 0.367981, 0.0859442
0.0532533, 0.367932, 0.0865998
0.0629427, 0.367972, 0.0860653
0.0726357, 0.368021, 0.0854201
0.082332, 0.368072, 0.0847292
0.09205, 0.3682, 0.0830259
0.101828, 0.368521, 0.0787439
0.111618, 0.368826, 0.0746636
0.121409, 0.369084, 0.071218
0.131198, 0.369298, 0.0683651
0.141013, 0.369551, 0.0649805
0.150876, 0.36989, 0.0604572
0.160787, 0.370298, 0.0550156
0.170816, 0.370914, 0.0467839
0.180966, 0.371714, 0.0361066
0.191349, 0.372885, 0.0204644
0.202174, 0.374761, -0.00459194
0.212408, 0.375418, -0.0133638
0.222418, 0.375639, -0.0163102
0.231339, 0.374079, 0.00451279
0.237189, 0.367884, 0.0872416
0.246099, 0.366736, 0.102582
0.255453, 0.36631, 0.108268
0.26488, 0.366016, 0.11219
0.274378, 0.365838, 0.114571
0.283915, 0.365722, 0.116124
0.293431, 0.365586, 0.117929
0.303062, 0.365598, 0.117768
0.312839, 0.365781, 0.115331
0.322692, 0.366039, 0.111891
0.332658, 0.366406, 0.106988
0.342768, 0.366907, 0.100295
0.352817, 0.367316, 0.0948281
0.362851, 0.367689, 0.0898519
0.375346, 0.370471, 0.0526953
0.391846, 0.376966, -0.0340328
0.402533, 0.377685, -0.043643
-0.217743, 0.380648, 0.0891128
-0.207772, 0.380109, 0.096055
-0.197911, 0.379731, 0.100939
-0.188053, 0.379321, 0.106223
-0.17829, 0.379067, 0.109498
-0.168612, 0.378975, 0.110685
-0.158954, 0.37892, 0.111401
-0.149309, 0.378891, 0.111775
-0.139681, 0.378906, 0.111587
-0.130059, 0.378936, 0.111188
-0.120441, 0.378987, 0.110534
-0.110855, 0.379156, 0.108352
-0.101264, 0.379339, 0.106001
-0.0916613, 0.37951, 0.103787
-0.0820933, 0.379883, 0.0989757
-0.0724763, 0.380098, 0.0962029
-0.0628187, 0.380133, 0.0957465
-0.0531617, 0.380187, 0.0950594
-0.0435031, 0.380249, 0.0942569
-0.0338449, 0.380352, 0.0929198
-0.0241843, 0.3805, 0.0910134
-0.0145103, 0.380491, 0.091135
-0.0048357, 0.380407, 0.0922179
0.00483443, 0.380307, 0.093502
0.0144995, 0.380208, 0.0947814
0.0241618, 0.380147, 0.0955744
0.0338214, 0.380088, 0.0963368
0.0434775, 0.380025, 0.0971432
0.0531328, 0.37998, 0.0977211
0.0627993, 0.380017, 0.0972543
0.0724688, 0.380059, 0.0967107
0.0821397, 0.380097, 0.09621
0.0918269, 0.380196, 0.0949421
0.101556, 0.380431, 0.0919042
0.111308, 0.380706, 0.0883522
0.121088, 0.381024, 0.0842557
0.130864, 0.381284, 0.0809045
0.140641, 0.381509, 0.0779939
0.150421, 0.381713, 0.0753689
0.160219, 0.381935, 0.0725007
0.170026, 0.382154, 0.0696754
0.179848, 0.38238, 0.066762
0.1897, 0.382642, 0.0633779
0.19965, 0.383069, 0.0578752
0.209629, 0.383508, 0.0522118
0.219164, 0.38313, 0.0570803
0.227757, 0.381211, 0.0818472
0.236663, 0.379949, 0.0981259
0.245957, 0.379385, 0.105399
0.255343, 0.379, 0.110364
0.264811, 0.37876, 0.113461
0.274307, 0.378576, 0.115839
0.283797, 0.378396, 0.118158
0.293324, 0.378275, 0.119717
0.302908, 0.378234, 0.120251
0.312662, 0.378401, 0.118098
0.322483, 0.378637, 0.115053
0.332429, 0.379001, 0.11036
0.342519, 0.379505, 0.103859
0.352663, 0.380038, 0.0969706
0.362696, 0.380428, 0.0919495
0.372903, 0.380975, 0.0848889
0.389596, 0.387952, -0.00512743
0.402144, 0.390559, -0.0387621
-0.218634, 0.395161, 0.0690198
-0.207949, 0.39333, 0.0918746
-0.197982, 0.392746, 0.0991621
-0.188051, 0.392174, 0.106294
-0.178297, 0.391932, 0.10931
-0.16859, 0.391772, 0.111312
-0.158924, 0.391693, 0.112302
-0.149292, 0.39169, 0.112327
-0.139665, 0.391703, 0.112171
-0.130045, 0.39174, 0.111708
-0.120431, 0.391802, 0.110935
-0.110813, 0.391861, 0.110205
-0.101213, 0.391998, 0.108488
-0.0916138, 0.392171, 0.106328
-0.0819977, 0.392303, 0.104686
-0.0724125, 0.392636, 0.100525
-0.0627614, 0.392661, 0.10022
-0.0531044, 0.392651, 0.100345
-0.0434517, 0.392674, 0.100053
-0.0337984, 0.392705, 0.0996718
-0.0241434, 0.392733, 0.0993137
-0.0144847, 0.392695, 0.0997987
-0.00482698, 0.392593, 0.101063
0.00482582, 0.392498, 0.102249
0.0144742, 0.39241, 0.103353
0.0241203, 0.392357, 0.104016
0.0337644, 0.392309, 0.104603
0.0434055, 0.392256, 0.105267
0.0530451, 0.392212, 0.105817
0.0626948, 0.392244, 0.105417
0.0723478, 0.392286, 0.104898
0.0820025, 0.392326, 0.1044
0.0916681, 0.392404, 0.103428
0.101364, 0.392583, 0.101195
0.111069, 0.392766, 0.0989022
0.120793, 0.392979, 0.096251
0.130508, 0.393136, 0.094295
0.140232, 0.393295, 0.0923004
0.149996, 0.393538, 0.0892744
0.159757, 0.393744, 0.0867052
0.169553, 0.39401, 0.0833883
0.179352, 0.394252, 0.0803647
0.189135, 0.394435, 0.0780754
0.198908, 0.394583, 0.0762386
0.208612, 0.394583, 0.076231
0.218142, 0.394272, 0.0801187
0.227253, 0.39326, 0.0927448
0.236491, 0.392543, 0.101686
0.245846, 0.392068, 0.107618
0.255302, 0.391784, 0.111166
0.264783, 0.391558, 0.113976
0.274284, 0.391375, 0.116258
0.283809, 0.391239, 0.117963
0.293337, 0.391117, 0.119489
0.302896, 0.39104, 0.120441
0.31261, 0.391163, 0.118912
0.322356, 0.391318, 0.116975
0.332262, 0.391651, 0.112816
0.342269, 0.392082, 0.107437
0.352456, 0.39269, 0.0998535
0.362572, 0.39319, 0.0936208
0.372646, 0.393618, 0.0882778
0.385348, 0.396729, 0.0494509
0.40186, 0.403514, -0.0352077
0.412891, 0.4046, -0.0487576
-0.230321, 0.411637, 0.0264874
-0.2196, 0.40992, 0.0472422
-0.208493, 0.407288, 0.0790329
-0.198106, 0.405876, 0.0961013
-0.188124, 0.40519, 0.104385
-0.17834, 0.404879, 0.108143
-0.168608, 0.40466, 0.110794
-0.15895, 0.404599, 0.111522
-0.149306, 0.40457, 0.111871
-0.13967, 0.40456, 0.111992
-0.130038, 0.404564, 0.11195
-0.120412, 0.404583, 0.111719
-0.110794, 0.40464, 0.111034
-0.101184, 0.404735, 0.109886
-0.091578, 0.404871, 0.108238
-0.0819664, 0.40501, 0.106556
-0.0723586, 0.405208, 0.10417
-0.0627288, 0.405325, 0.102758
-0.0530753, 0.405303, 0.103023
-0.0434177, 0.405232, 0.103883
-0.033765, 0.40518, 0.104507
-0.0241168, 0.405163, 0.104717
-0.0144688, 0.405123, 0.10519
-0.0048216, 0.405013, 0.106527
0.00482028, 0.404902, 0.107865
0.0144572, 0.4048, 0.109102
0.0240913, 0.404734, 0.109892
0.033723, 0.404676, 0.110596
0.0433519, 0.404617, 0.111309
0.0529791, 0.404568, 0.111903
0.062616, 0.404595, 0.111569
0.0722569, 0.404638, 0.111053
0.0818997, 0.404681, 0.110539
0.0915507, 0.40475, 0.109695
0.10123, 0.40492, 0.107642
0.110921, 0.405103, 0.105435
0.120622, 0.405289, 0.103191
0.130313, 0.405417, 0.101649
0.14, 0.405518, 0.100429
0.149698, 0.405634, 0.0990152
0.159405, 0.405759, 0.0975099
0.169109, 0.405861, 0.0962801
0.178817, 0.405962, 0.0950584
0.188534, 0.406072, 0.0937271
0.198277, 0.406225, 0.0918794
0.207953, 0.406233, 0.0917859
0.217588, 0.406165, 0.0926046
0.227045, 0.405782, 0.0972281
0.236396, 0.40525, 0.103663
0.245779, 0.404813, 0.108944
0.255279, 0.404593, 0.111596
0.26478, 0.404392, 0.114028
0.274311, 0.404248, 0.115768
0.283844, 0.404116, 0.117357
0.293374, 0.403991, 0.118873
0.302901, 0.403867, 0.120365
0.312578, 0.403947, 0.119409
0.322316, 0.404098, 0.117583
0.332209, 0.404429, 0.113582
0.342164, 0.404813, 0.108939
0.352327, 0.405418, 0.101635
0.362513, 0.406014, 0.0944247
0.372617, 0.406491, 0.0886617
0.383041, 0.407284, 0.0790858
0.401814, 0.416696, -0.0346284
0.412905, 0.417879, -0.0489283
-0.230116, 0.424327, 0.0309157
-0.219665, 0.423059, 0.0457683
-0.209147, 0.421536, 0.0636005
-0.198505, 0.419604, 0.0862293
-0.188361, 0.41858, 0.0982218
-0.178486, 0.418076, 0.104124
-0.168709, 0.417754, 0.107887
-0.159033, 0.417664, 0.108948
-0.149368, 0.417588, 0.109839
-0.139705, 0.417508, 0.110769
-0.13007, 0.417508, 0.11077
-0.120444, 0.417539, 0.110413
-0.110814, 0.417562, 0.110142
-0.101192, 0.417616, 0.109501
-0.0915668, 0.417673, 0.108838
-0.0819449, 0.417758, 0.10784
-0.0723295, 0.417904, 0.106136
-0.0627085, 0.418057, 0.104345
-0.053061, 0.418057, 0.104344
-0.0434047, 0.417971, 0.105348
-0.0337516, 0.417877, 0.106453
-0.0241042, 0.417806, 0.107281
-0.0144604, 0.417743, 0.108016
-0.00481892, 0.417638, 0.109244
0.00481756, 0.41752, 0.110627
0.0144484, 0.417395, 0.112091
0.0240748, 0.417298, 0.113236
0.0336982, 0.417216, 0.11419
0.0433194, 0.417149, 0.11497
0.0529392, 0.417097, 0.115587
0.0625678, 0.417118, 0.115334
0.0722006, 0.417159, 0.114863
0.0818341, 0.417194, 0.114453
0.0914734, 0.417247, 0.113826
0.10114, 0.417405, 0.111977
0.110817, 0.417573, 0.110015
0.120501, 0.417738, 0.108082
0.130196, 0.417912, 0.106046
0.139894, 0.418074, 0.104139
0.149595, 0.418224, 0.10239
0.159304, 0.418373, 0.100638
0.169011, 0.418505, 0.099102
0.178725, 0.418636, 0.0975666
0.188446, 0.418769, 0.0960064
0.19813, 0.418811, 0.0955153
0.207762, 0.418745, 0.0962853
0.217408, 0.418712, 0.0966754
0.226867, 0.418336, 0.10108
0.236234, 0.417828, 0.107023
0.245704, 0.417536, 0.110442
0.25519, 0.417292, 0.113302
0.264724, 0.417141, 0.11507
0.274265, 0.417011, 0.116592
0.283804, 0.416887, 0.118048
0.293386, 0.416833, 0.118677
0.302925, 0.416722, 0.119979
0.312607, 0.41681, 0.118951
0.322327, 0.416941, 0.117412
0.332201, 0.417257, 0.113709
0.342109, 0.417598, 0.109721
0.352225, 0.418167, 0.103057
0.362444, 0.418824, 0.0953584
0.372583, 0.419358, 0.0891104
0.382806, 0.419956, 0.0821033
0.397931, 0.42577, 0.01402
-0.230129, 0.437408, 0.0306311
-0.219252, 0.435256, 0.0550833
-0.208881, 0.433954, 0.0698724
-0.198643, 0.432815, 0.0828171
-0.188491, 0.431756, 0.0948467
-0.178584, 0.431176, 0.101439
-0.168848, 0.430965, 0.103837
-0.159143, 0.430812, 0.105575
-0.14944, 0.430644, 0.107484
-0.139762, 0.430531, 0.10876
-0.130109, 0.430484, 0.109303
-0.120478, 0.430507, 0.109033
-0.110846, 0.430533, 0.10874
-0.101212, 0.430554, 0.1085
-0.0915798, 0.430585, 0.108145
-0.0819469, 0.430623, 0.107717
-0.0723153, 0.430677, 0.1071
-0.0627003, 0.430863, 0.104989
-0.0530546, 0.430868, 0.10494
-0.0433999, 0.430783, 0.105898
-0.0337464, 0.430668, 0.107205
-0.0240981, 0.430553, 0.108511
-0.0144553, 0.430445, 0.109744
-0.00481703, 0.43032, 0.111164
0.00481552, 0.430185, 0.112694
0.0144421, 0.430051, 0.114219
0.0240642, 0.429947, 0.115394
0.0336828, 0.429856, 0.116432
0.0432972, 0.429764, 0.117474
0.052908, 0.429678, 0.118459
0.0625278, 0.429678, 0.118453
0.0721524, 0.429708, 0.118119
0.0817783, 0.429737, 0.117783
0.0914078, 0.429777, 0.117332
0.101064, 0.429921, 0.115694
0.110734, 0.430096, 0.113702
0.120412, 0.430272, 0.111712
0.1301, 0.430454, 0.109636
0.139801, 0.430652, 0.107386
0.149506, 0.430836, 0.105303
0.159211, 0.430995, 0.103487
0.168931, 0.431177, 0.101423
0.17865, 0.431336, 0.0996222
0.18835, 0.431434, 0.0984993
0.197967, 0.431342, 0.0995488
0.207631, 0.431357, 0.0993767
0.217258, 0.431297, 0.100065
0.226688, 0.430869, 0.104929
0.236108, 0.430455, 0.109629
0.245581, 0.430168, 0.112883
0.255076, 0.42994, 0.11548
0.264634, 0.42983, 0.116733
0.274187, 0.42972, 0.11798
0.28375, 0.429632, 0.118973
0.293348, 0.429602, 0.119317
0.302942, 0.429568, 0.119699
0.312631, 0.429667, 0.118583
0.32235, 0.429799, 0.117074
0.332191, 0.430083, 0.113853
0.342099, 0.430435, 0.109855
0.352162, 0.430956, 0.10394
0.362402, 0.431661, 0.0959244
0.372587, 0.432265, 0.0890594
0.382772, 0.43284, 0.0825353
0.397691, 0.438605, 0.0170321
-0.240691, 0.45191, 0.0146937
-0.229702, 0.44963, 0.0398464
-0.218979, 0.447691, 0.0612402
-0.20862, 0.446349, 0.0760412
-0.198396, 0.44518, 0.0889354
-0.188432, 0.444506, 0.0963726
-0.178574, 0.444022, 0.101712
-0.168843, 0.443817, 0.103975
-0.159163, 0.443728, 0.104957
-0.149501, 0.443681, 0.105469
-0.139822, 0.443574, 0.106653
-0.130153, 0.443485, 0.107631
-0.120515, 0.443495, 0.107523
-0.11088, 0.443519, 0.10726
-0.101244, 0.443547, 0.106951
-0.0916064, 0.443568, 0.10672
-0.0819605, 0.443551, 0.106906
-0.0723243, 0.443589, 0.106489
-0.0627054, 0.443761, 0.10459
-0.0530596, 0.443772, 0.104474
-0.0434023, 0.443667, 0.105624
-0.0337452, 0.443508, 0.107379
-0.0240959, 0.443365, 0.10896
-0.0144533, 0.443233, 0.110419
-0.00481626, 0.443094, 0.111947
0.00481465, 0.442946, 0.113585
0.0144392, 0.442802, 0.115172
0.0240593, 0.442691, 0.116397
0.0336758, 0.442596, 0.117447
0.0432877, 0.442496, 0.118541
0.0528951, 0.442395, 0.119656
0.062508, 0.442364, 0.120003
0.072128, 0.442385, 0.119771
0.0817493, 0.442408, 0.119513
0.0913725, 0.442435, 0.119216
0.10102, 0.442562, 0.117819
0.110682, 0.442728, 0.115986
0.120352, 0.442895, 0.114141
0.130031, 0.443067, 0.112243
0.13972, 0.44325, 0.110224
0.149418, 0.443434, 0.108202
0.159127, 0.443628, 0.106059
0.168844, 0.44382, 0.103946
0.178566, 0.444003, 0.101926
0.188204, 0.443969, 0.102299
0.197823, 0.443895, 0.103114
0.207478, 0.443906, 0.102992
0.217065, 0.443777, 0.104418
0.226542, 0.443443, 0.108096
0.236027, 0.443153, 0.111295
0.245514, 0.442888, 0.11422
0.255045, 0.44272, 0.116073
0.264605, 0.442612, 0.117263
0.274167, 0.442516, 0.11833
0.283759, 0.442472, 0.118816
0.293365, 0.442452, 0.119033
0.302996, 0.442471, 0.118824
0.312703, 0.442595, 0.117455
0.322426, 0.442734, 0.115923
0.33227, 0.443027, 0.112688
0.342183, 0.443392, 0.108663
0.352241, 0.44392, 0.102842
0.362499, 0.444666, 0.0946116
0.372693, 0.445296, 0.0876594
0.382872, 0.445876, 0.0812635
0.397669, 0.451674, 0.0172992
-0.24057, 0.464775, 0.0171976
-0.229441, 0.462136, 0.0454879
-0.218827, 0.460347, 0.064671
-0.208421, 0.458849, 0.0807328
-0.198255, 0.45776, 0.0924106
-0.188365, 0.457228, 0.0981154
-0.178579, 0.456906, 0.101562
-0.168842, 0.456677, 0.104013
-0.159166, 0.456598, 0.104867
-0.149531, 0.456633, 0.104491
-0.139877, 0.456611, 0.104723
-0.130204, 0.456517, 0.105736
-0.120555, 0.456501, 0.10591
-0.110917, 0.456529, 0.105601
-0.101279, 0.456559, 0.105285
-0.0916392, 0.456588, 0.10497
-0.0819924, 0.456585, 0.105002
-0.0723467, 0.456588, 0.104973
-0.0627222, 0.456747, 0.103273
-0.0530722, 0.456743, 0.103314
-0.0434096, 0.456604, 0.104796
-0.0337508, 0.456439, 0.106573
-0.024099, 0.456276, 0.10832
-0.0144544, 0.456114, 0.110055
-0.00481646, 0.455957, 0.111741
0.00481477, 0.455796, 0.113464
0.014439, 0.455629, 0.115255
0.0240578, 0.455496, 0.116684
0.0336734, 0.455393, 0.117789
0.0432847, 0.45529, 0.118886
0.0528923, 0.455195, 0.119912
0.0625023, 0.455145, 0.120447
0.0721204, 0.455159, 0.120288
0.0817391, 0.455175, 0.120124
0.0913586, 0.45519, 0.119957
0.100997, 0.455286, 0.118935
0.110654, 0.455446, 0.117211
0.120319, 0.455607, 0.115488
0.129991, 0.455771, 0.113727
0.139678, 0.455959, 0.111713
0.149377, 0.456161, 0.109552
0.159084, 0.456362, 0.107395
0.168798, 0.456559, 0.105284
0.178494, 0.456687, 0.103906
0.188093, 0.456568, 0.105189
0.197709, 0.4565, 0.105918
0.20735, 0.456491, 0.106011
0.216915, 0.456325, 0.107794
0.226424, 0.456059, 0.110648
0.235965, 0.455877, 0.11259
0.245484, 0.45567, 0.11481
0.255047, 0.455556, 0.116036
0.264613, 0.455455, 0.117124
0.274192, 0.455383, 0.117892
0.283808, 0.455376, 0.117966
0.293427, 0.455372, 0.118006
0.303082, 0.455425, 0.117436
0.312795, 0.455558, 0.116018
0.322521, 0.455701, 0.114482
0.332377, 0.456014, 0.111124
0.342284, 0.456378, 0.107225
0.352331, 0.456905, 0.101578
0.362598, 0.457679, 0.0932784
0.372816, 0.458354, 0.0860443
0.383009, 0.458964, 0.0794988
0.393999, 0.460476, 0.0632892
-0.240402, 0.477533, 0.0206823
-0.2295, 0.475277, 0.0442152
-0.218823, 0.473306, 0.0647631
-0.208356, 0.471627, 0.0822701
-0.198275, 0.470701, 0.0919223
-0.188342, 0.470051, 0.0987039
-0.178583, 0.469786, 0.10147
-0.168859, 0.469588, 0.103533
-0.159182, 0.469507, 0.104375
-0.149537, 0.469514, 0.104308
-0.139914, 0.469597, 0.103434
-0.130269, 0.469613, 0.103267
-0.120606, 0.469559, 0.10383
-0.110956, 0.469554, 0.103881
-0.101314, 0.46958, 0.103614
-0.0916704, 0.46961, 0.103304
-0.0820244, 0.46963, 0.103089
-0.0723776, 0.46965, 0.102884
-0.062748, 0.469805, 0.101264
-0.0530909, 0.469774, 0.101589
-0.0434249, 0.469632, 0.10307
-0.0337626, 0.469461, 0.104856
-0.0241066, 0.469275, 0.106798
-0.0144582, 0.469086, 0.108768
-0.00481771, 0.468922, 0.110477
0.00481607, 0.468762, 0.112141
0.0144431, 0.468597, 0.113863
0.0240646, 0.468459, 0.115306
0.0336838, 0.468365, 0.116281
0.0432997, 0.468278, 0.117192
0.0529119, 0.468191, 0.118099
0.0625239, 0.468128, 0.11876
0.0721443, 0.468136, 0.11867
0.0817655, 0.468148, 0.118549
0.0913874, 0.46816, 0.118422
0.101021, 0.468225, 0.117743
0.110678, 0.468377, 0.116161
0.120341, 0.468527, 0.114593
0.13001, 0.468679, 0.113011
0.139689, 0.46884, 0.111327
0.149378, 0.469016, 0.109497
0.159077, 0.469197, 0.107609
0.168785, 0.469384, 0.10566
0.178432, 0.469388, 0.105618
0.18801, 0.469222, 0.107346
0.197622, 0.469153, 0.108072
0.207251, 0.469125, 0.108355
0.21681, 0.468952, 0.110163
0.226342, 0.468737, 0.112407
0.235954, 0.468697, 0.112822
0.245504, 0.468544, 0.114418
0.255067, 0.468425, 0.115655
0.264619, 0.468295, 0.117012
0.274231, 0.468277, 0.117198
0.28386, 0.468289, 0.117073
0.293484, 0.468291, 0.117055
0.303171, 0.468391, 0.116016
0.312889, 0.468531, 0.114549
0.322636, 0.468705, 0.112736
0.33251, 0.469048, 0.109159
0.342419, 0.46942, 0.105286
0.352484, 0.469979, 0.0994573
0.362733, 0.470747, 0.0914507
0.372989, 0.471484, 0.0837607
0.38322, 0.472153, 0.0767808
0.394123, 0.473597, 0.0617337
-0.250725, 0.491617, 0.0105319
-0.240271, 0.490349, 0.0233951
-0.22971, 0.488746, 0.0396705
-0.219002, 0.48667, 0.0607343
-0.20845, 0.484767, 0.0800543
-0.198314, 0.483693, 0.0909486
-0.188404, 0.483087, 0.0971031
-0.178604, 0.482715, 0.100878
-0.168897, 0.482562, 0.102426
-0.159209, 0.482452, 0.103546
-0.149567, 0.482473, 0.103327
-0.139944, 0.482566, 0.102388
-0.130317, 0.482655, 0.101481
-0.120666, 0.482663, 0.101402
-0.111003, 0.482622, 0.101816
-0.101351, 0.482625, 0.101793
-0.0917021, 0.482642, 0.101612
-0.0820539, 0.48267, 0.101331
-0.0724095, 0.482729, 0.100729
-0.0627815, 0.482935, 0.0986471
-0.0531186, 0.482897, 0.0990272
-0.0434466, 0.482739, 0.100632
-0.0337793, 0.482561, 0.102439
-0.0241184, 0.482368, 0.104393
-0.0144652, 0.48217, 0.106405
-0.00482003, 0.482001, 0.108121
0.00481863, 0.481861, 0.10954
0.0144513, 0.481708, 0.111098
0.0240782, 0.481565, 0.112548
0.033704, 0.481485, 0.113358
0.0433263, 0.481403, 0.114193
0.052945, 0.481319, 0.115046
0.0625618, 0.481244, 0.115803
0.0721865, 0.481243, 0.115817
0.0818126, 0.481251, 0.115734
0.0914392, 0.481259, 0.115654
0.101072, 0.481297, 0.11527
0.110729, 0.481432, 0.113894
0.120393, 0.481572, 0.112477
0.130062, 0.48171, 0.111071
0.139736, 0.48185, 0.109655
0.149422, 0.482005, 0.108077
0.159115, 0.482167, 0.106438
0.168812, 0.482319, 0.10489
0.178417, 0.482207, 0.106027
0.188014, 0.482086, 0.107254
0.197643, 0.482056, 0.107565
0.207252, 0.481981, 0.108327
0.216778, 0.481728, 0.11089
0.226315, 0.481521, 0.11299
0.235921, 0.481472, 0.11349
0.245504, 0.481381, 0.114413
0.255056, 0.481238, 0.115861
0.264625, 0.481136, 0.116904
0.274258, 0.481155, 0.116705
0.283897, 0.481181, 0.116448
0.29355, 0.481229, 0.115952
0.303268, 0.481378, 0.114446
0.312999, 0.481537, 0.112836
0.322767, 0.481742, 0.11075
0.332657, 0.482112, 0.106995
0.342567, 0.482489, 0.103168
0.352641, 0.483069, 0.097281
0.362866, 0.483821, 0.0896502
0.373137, 0.484593, 0.08181
0.383458, 0.48539, 0.0737305
0.394331, 0.486828, 0.0591311
-0.250479, 0.504232, 0.0154209
-0.240205, 0.503287, 0.0247569
-0.229851, 0.502086, 0.0366278
-0.219395, 0.500545, 0.0518646
-0.208645, 0.498159, 0.075448
-0.198503, 0.497065, 0.0862722
-0.188497, 0.496215, 0.0946693
-0.178701, 0.495855, 0.0982308
-0.168983, 0.495684, 0.0999184
-0.159254, 0.495457, 0.102161
-0.149623, 0.495526, 0.101482
-0.140007, 0.495657, 0.100186
-0.130354, 0.495666, 0.100099
-0.120711, 0.49572, 0.0995626
-0.111053, 0.495714, 0.0996256
-0.101395, 0.495706, 0.0996981
-0.0917445, 0.495742, 0.0993447
-0.0821005, 0.495823, 0.0985456
-0.0724554, 0.495916, 0.0976219
-0.0628221, 0.496133, 0.0954804
-0.053159, 0.49615, 0.0953078
-0.0434837, 0.496036, 0.0964446
-0.0338078, 0.495847, 0.0983043
-0.0241384, 0.495642, 0.100339
-0.014477, 0.495434, 0.102389
-0.00482407, 0.495269, 0.104019
0.00482272, 0.495131, 0.10539
0.0144638, 0.49498, 0.106876
0.024099, 0.494833, 0.108334
0.0337325, 0.494743, 0.10922
0.0433631, 0.49466, 0.11004
0.0529906, 0.494579, 0.110845
0.0626155, 0.494502, 0.111607
0.0722465, 0.494487, 0.111755
0.0818794, 0.494488, 0.111746
0.0915122, 0.494487, 0.111752
0.101149, 0.494506, 0.111567
0.110808, 0.494622, 0.110415
0.120476, 0.494755, 0.109101
0.130148, 0.494882, 0.107847
0.13982, 0.494994, 0.106745
0.149501, 0.495122, 0.105475
0.159193, 0.495268, 0.104033
0.168872, 0.495358, 0.10314
0.178457, 0.495178, 0.104917
0.188069, 0.495086, 0.105829
0.197693, 0.495036, 0.106323
0.207259, 0.494851, 0.108157
0.216768, 0.494552, 0.111115
0.226331, 0.494397, 0.112644
0.235914, 0.494297, 0.113631
0.245477, 0.494163, 0.114958
0.255024, 0.494008, 0.116488
0.264628, 0.493972, 0.116842
0.274271, 0.494008, 0.116487
0.283919, 0.494051, 0.116059
0.293618, 0.494176, 0.114822
0.303368, 0.494377, 0.112835
0.313107, 0.494548, 0.111148
0.322913, 0.494812, 0.108536
0.332819, 0.495209, 0.10462
0.342738, 0.495602, 0.100727
0.35286, 0.49626, 0.0942287
0.363061, 0.496991, 0.0870023
0.37334, 0.497786, 0.0791388
0.383745, 0.498706, 0.0700474
0.394793, 0.500396, 0.0533371
-0.250629, 0.517639, 0.0124288
-0.240174, 0.516293, 0.0254035
-0.229962, 0.515375, 0.0342412
-0.219715, 0.514297, 0.0446343
-0.20915, 0.512337, 0.0635176
-0.198778, 0.510682, 0.0794644
-0.188734, 0.509744, 0.0884995
-0.178837, 0.509123, 0.0944853
-0.169095, 0.508895, 0.0966859
-0.159396, 0.50878, 0.097785
-0.149697, 0.508648, 0.0990658
-0.140067, 0.508748, 0.0980949
-0.130425, 0.508818, 0.0974212
-0.12076, 0.508804, 0.0975618
-0.111114, 0.508872, 0.0969081
-0.10146, 0.508908, 0.0965567
-0.0917972, 0.508911, 0.0965323
-0.0821523, 0.509022, 0.0954556
-0.0725079, 0.509166, 0.0940695
-0.0628778, 0.509471, 0.0911326
-0.0532155, 0.509579, 0.0900893
-0.0435366, 0.509539, 0.0904727
-0.0338499, 0.50936, 0.0922027
-0.0241683, 0.509146, 0.0942616
-0.0144955, 0.508952, 0.0961366
-0.00483046, 0.508806, 0.0975356
0.00482919, 0.508672, 0.0988278
0.0144832, 0.508519, 0.100309
0.0241306, 0.508353, 0.101906
0.0337757, 0.508244, 0.102952
0.0434183, 0.508154, 0.103823
0.0530574, 0.508065, 0.104681
0.0626938, 0.507981, 0.105492
0.0723338, 0.507944, 0.105845
0.0819772, 0.507937, 0.105908
0.0916204, 0.507931, 0.105973
0.101266, 0.507936, 0.105922
0.11093, 0.508026, 0.10506
0.120601, 0.508132, 0.104033
0.130273, 0.508227, 0.103118
0.139937, 0.508278, 0.102628
0.149613, 0.508363, 0.101807
0.159285, 0.508425, 0.101213
0.168952, 0.508465, 0.100824
0.17853, 0.508248, 0.102915
0.188148, 0.508161, 0.103758
0.197739, 0.508013, 0.10518
0.207263, 0.507714, 0.108059
0.216794, 0.507459, 0.110516
0.226364, 0.507311, 0.111941
0.235925, 0.507159, 0.113404
0.245477, 0.506999, 0.114952
0.255051, 0.506894, 0.115961
0.264684, 0.506911, 0.115803
0.274326, 0.506943, 0.115495
0.283979, 0.506991, 0.115029
0.293708, 0.507167, 0.113329
0.303463, 0.507377, 0.111313
0.313225, 0.507586, 0.109299
0.323081, 0.507928, 0.105996
0.332993, 0.508337, 0.102055
0.34295, 0.50879, 0.0976915
0.353082, 0.509469, 0.0911484
0.363282, 0.510209, 0.0840211
0.373593, 0.511063, 0.0757957
0.384106, 0.512142, 0.0654006
0.395674, 0.514539, 0.0422997
-0.250472, 0.530411, 0.0155559
-0.240152, 0.529315, 0.0258574
-0.230075, 0.528682, 0.0318046
-0.219924, 0.527817, 0.0399327
-0.209772, 0.526868, 0.0488529
-0.199305, 0.524997, 0.066431
-0.189091, 0.523635, 0.0792313
-0.179139, 0.522893, 0.0862069
-0.16932, 0.522473, 0.0901504
-0.159591, 0.522299, 0.0917883
-0.14988, 0.522161, 0.0930853
-0.140184, 0.522066, 0.0939803
-0.130525, 0.522099, 0.0936646
-0.120856, 0.522097, 0.093688
-0.111202, 0.522166, 0.0930347
-0.101535, 0.522181, 0.0928979
-0.0918551, 0.522124, 0.0934367
-0.0822074, 0.522259, 0.0921645
-0.0725651, 0.522468, 0.0901985
-0.062938, 0.52287, 0.0864253
-0.0532813, 0.523126, 0.0840206
-0.0435932, 0.523118, 0.084094
-0.0339019, 0.523058, 0.0846558
-0.0242085, 0.522904, 0.0861006
-0.0145197, 0.522706, 0.0879622
-0.00483833, 0.522537, 0.089551
0.00483737, 0.522434, 0.0905209
0.0145086, 0.522308, 0.0917087
0.0241747, 0.522175, 0.0929546
0.0338369, 0.522055, 0.0940847
0.0434978, 0.521973, 0.0948482
0.0531555, 0.521891, 0.095624
0.0628103, 0.521808, 0.0964007
0.0724643, 0.521742, 0.0970192
0.082123, 0.521722, 0.0972075
0.0917817, 0.521706, 0.0973587
0.101441, 0.521694, 0.0974755
0.111114, 0.521751, 0.0969419
0.120792, 0.521822, 0.0962753
0.130467, 0.521868, 0.095839
0.140122, 0.521833, 0.0961642
0.149771, 0.521782, 0.0966506
0.159417, 0.521729, 0.0971475
0.169066, 0.521688, 0.0975342
0.178661, 0.521498, 0.0993161
0.188272, 0.521369, 0.100528
0.197783, 0.52099, 0.10409
0.207283, 0.520618, 0.107584
0.216835, 0.520404, 0.109601
0.226405, 0.520249, 0.111055
0.235984, 0.520129, 0.112183
0.24557, 0.52003, 0.113108
0.255192, 0.520015, 0.113256
0.264838, 0.520046, 0.112963
0.274487, 0.520081, 0.112635
0.284167, 0.52017, 0.1118
0.293917, 0.520377, 0.109852
0.303677, 0.520589, 0.10786
0.313469, 0.52084, 0.105501
0.323363, 0.521242, 0.10172
0.333281, 0.521656, 0.0978274
0.34332, 0.522232, 0.0924153
0.353478, 0.522954, 0.0856314
0.363741, 0.523786, 0.0778117
0.374121, 0.524742, 0.0688362
0.3849, 0.526192, 0.0552044
0.396234, 0.528312, 0.0352793
-0.250582, 0.543748, 0.0133576
-0.240192, 0.542475, 0.0250297
-0.230133, 0.541872, 0.0305548
-0.22008, 0.541233, 0.0364213
-0.210008, 0.540486, 0.0432711
-0.199964, 0.539739, 0.0501213
-0.189839, 0.538687, 0.0597677
-0.179759, 0.537657, 0.0692129
-0.169781, 0.536832, 0.0767789
-0.159923, 0.536308, 0.0815821
-0.150177, 0.536116, 0.0833426
-0.140461, 0.536013, 0.0842891
-0.130748, 0.535906, 0.0852699
-0.121043, 0.535818, 0.0860763
-0.111319, 0.53562, 0.0878968
-0.101625, 0.535546, 0.088572
-0.0919517, 0.535578, 0.0882769
-0.0822873, 0.535674, 0.0873961
-0.0726372, 0.535901, 0.0853219
-0.063001, 0.536316, 0.0815125
-0.0533465, 0.536699, 0.0780044
-0.0436556, 0.536802, 0.0770555
-0.0339557, 0.536823, 0.0768633
-0.0242507, 0.536749, 0.0775437
-0.014548, 0.536657, 0.0783863
-0.00484796, 0.536506, 0.0797739
0.00484704, 0.536404, 0.0807061
0.0145395, 0.536342, 0.0812716
0.0242281, 0.53625, 0.082119
0.033912, 0.536133, 0.0831952
0.0435959, 0.536068, 0.0837874
0.0532787, 0.536016, 0.084259
0.0629579, 0.535949, 0.084877
0.072633, 0.53587, 0.0856051
0.0823117, 0.535833, 0.0859399
0.0919913, 0.535809, 0.0861621
0.10167, 0.535782, 0.0864077
0.111345, 0.535745, 0.0867491
0.121026, 0.535743, 0.0867686
0.130707, 0.535736, 0.0868297
0.14035, 0.535588, 0.0881848
0.14999, 0.535448, 0.0894713
0.15962, 0.53529, 0.0909195
0.169233, 0.535099, 0.0926704
0.178815, 0.534835, 0.0950975
0.188351, 0.534465, 0.0984874
0.197802, 0.533905, 0.103623
