0.228785, 0.516973, 0.111662
0.233574, 0.516912, 0.112244
0.238355, 0.516837, 0.11295
0.243125, 0.516741, 0.11386
0.247894, 0.516646, 0.114754
0.25266, 0.51655, 0.115663
0.257448, 0.5165, 0.116139
0.262265, 0.516509, 0.116054
0.267087, 0.516528, 0.115874
0.271908, 0.516545, 0.115709
0.27673, 0.516563, 0.115539
0.281553, 0.516582, 0.115363
0.286376, 0.5166, 0.115191
0.291225, 0.516663, 0.114599
0.296111, 0.51679, 0.113395
0.301001, 0.516919, 0.112176
0.305893, 0.517047, 0.110962
0.310787, 0.517175, 0.109752
0.315686, 0.517307, 0.108508
0.3206, 0.51746, 0.10706
0.325558, 0.517678, 0.105002
0.33052, 0.517895, 0.102949
0.335487, 0.518114, 0.100881
0.340465, 0.518343, 0.0987082
0.345459, 0.518591, 0.0963626
0.350559, 0.518989, 0.0926032
0.355656, 0.519371, 0.0889874
0.360749, 0.519736, 0.085536
0.365858, 0.520117, 0.0819402
0.371054, 0.520607, 0.0773001
0.376247, 0.521082, 0.0728126
0.381442, 0.521548, 0.0684099
0.386877, 0.522324, 0.0610685
0.392405, 0.523207, 0.052721
0.398405, 0.524688, 0.0387101
0.404983, 0.526887, 0.0179257
-0.257816, 0.533639, 0.0159926
-0.252642, 0.533083, 0.0211868
-0.247483, 0.532537, 0.0262866
-0.242396, 0.532128, 0.0301003
-0.237336, 0.531764, 0.0335021
-0.232238, 0.531296, 0.0378728
-0.227103, 0.530721, 0.0432415
-0.222025, 0.530257, 0.0475726
-0.216773, 0.529349, 0.0560613
-0.211373, 0.528027, 0.0683994
-0.206215, 0.527263, 0.0755377
-0.201125, 0.526641, 0.0813503
-0.196101, 0.526165, 0.0857968
-0.191142, 0.525842, 0.0888081
-0.186195, 0.525536, 0.0916648
-0.18129, 0.525338, 0.093523
-0.17644, 0.525291, 0.093955
-0.17156, 0.525151, 0.0952663
-0.166722, 0.525136, 0.0954094
-0.161885, 0.52512, 0.0955582
-0.15702, 0.525012, 0.0965662
-0.152193, 0.525026, 0.0964351
-0.147365, 0.525039, 0.0963092
-0.142542, 0.525068, 0.0960388
-0.137722, 0.525115, 0.0956044
-0.132872, 0.525045, 0.0962577
-0.128053, 0.525099, 0.0957532
-0.123234, 0.525155, 0.0952229
-0.1184, 0.525149, 0.0952849
-0.113572, 0.525171, 0.0950823
-0.108737, 0.525158, 0.0952024
-0.103893, 0.525103, 0.095715
-0.099063, 0.525114, 0.0956063
-0.0942425, 0.525181, 0.094986
-0.0894211, 0.525248, 0.0943589
-0.0845965, 0.525304, 0.0938373
-0.0797763, 0.525395, 0.0929818
-0.0749589, 0.525518, 0.0918326
-0.070156, 0.525767, 0.0895147
-0.0653178, 0.525768, 0.0894985
-0.0604763, 0.52574, 0.0897655
-0.0556351, 0.525711, 0.0900369
-0.0507934, 0.525672, 0.0904026
-0.0459474, 0.525573, 0.09132
-0.0411008, 0.525446, 0.0925107
-0.0362566, 0.525318, 0.0937061
-0.0314154, 0.525202, 0.0947866
-0.026577, 0.525097, 0.0957723
-0.0217405, 0.524992, 0.0967531
-0.016906, 0.524891, 0.0976892
-0.0120735, 0.524794, 0.0985994
-0.00724256, 0.524685, 0.0996146
-0.00241358, 0.524561, 0.100773
0.002413, 0.524437, 0.101936
0.00723741, 0.524313, 0.103095
0.0120595, 0.524188, 0.104257
0.0168796, 0.524073, 0.105335
0.0216991, 0.523992, 0.10609
0.0265171, 0.523913, 0.106829
0.0313335, 0.523833, 0.107574
0.0361486, 0.523754, 0.108313
0.0409622, 0.523674, 0.109056
0.0457744, 0.523595, 0.109794
0.0505851, 0.523516, 0.110537
0.0553954, 0.523446, 0.111185
0.0602081, 0.523408, 0.111539
0.0650199, 0.52337, 0.111898
0.0698315, 0.523335, 0.112223
0.0746426, 0.523301, 0.112542
0.0794532, 0.523268, 0.112855
0.0842633, 0.523235, 0.113163
0.089073, 0.523203, 0.113457
0.0938917, 0.523226, 0.113248
0.098714, 0.523264, 0.112885
0.103537, 0.523303, 0.112525
0.108361, 0.523342, 0.112162
0.113186, 0.523384, 0.111773
0.118014, 0.523434, 0.111299
0.122842, 0.523485, 0.110829
0.127673, 0.523541, 0.110305
0.132506, 0.523601, 0.109746
0.137343, 0.523672, 0.109082
0.142183, 0.523746, 0.108383
0.147024, 0.523822, 0.107679
0.151866, 0.523897, 0.10698
0.156709, 0.523972, 0.106276
0.161558, 0.52406, 0.105456
0.166427, 0.524204, 0.104105
0.171275, 0.524277, 0.103425
0.176123, 0.524346, 0.102779
0.180915, 0.524251, 0.103668
0.18571, 0.524168, 0.104443
0.190525, 0.524143, 0.104675
0.195349, 0.524147, 0.104644
0.200178, 0.52416, 0.104519
0.204978, 0.524101, 0.105073
0.209749, 0.52397, 0.106298
0.214494, 0.523783, 0.108044
0.219254, 0.523639, 0.109388
0.224025, 0.523529, 0.110418
0.228805, 0.523441, 0.111234
0.233594, 0.523379, 0.111816
0.238366, 0.523282, 0.11272
0.243137, 0.523186, 0.11362
0.247923, 0.523126, 0.114176
0.252714, 0.523078, 0.114628
0.25751, 0.523042, 0.114965
0.262332, 0.52306, 0.114791
0.267155, 0.523079, 0.114621
0.271979, 0.523097, 0.114446
0.276802, 0.523116, 0.114275
0.281629, 0.523141, 0.11404
0.286458, 0.523166, 0.1138
0.291315, 0.523243, 0.113088
0.296203, 0.523373, 0.111874
0.301094, 0.523502, 0.110665
0.305988, 0.523632, 0.109452
0.310887, 0.523768, 0.108182
0.315789, 0.523904, 0.106909
0.320712, 0.524071, 0.105352
0.325672, 0.524291, 0.103294
0.330636, 0.524512, 0.101232
0.335619, 0.524757, 0.0989456
0.340609, 0.525004, 0.0966349
0.345634, 0.525299, 0.0938826
0.350737, 0.525702, 0.0901141
0.355848, 0.526107, 0.0863409
0.360955, 0.526494, 0.0827208
0.3661, 0.526925, 0.0786996
0.371299, 0.527423, 0.0740495
0.376505, 0.527917, 0.0694342
0.381817, 0.528545, 0.0635653
0.387214, 0.529274, 0.0567608
0.392821, 0.530268, 0.047473
0.399337, 0.532449, 0.027101
0.405386, 0.533962, 0.0129704
-0.263265, 0.541292, 0.00579166
-0.257781, 0.540113, 0.0166688
-0.252623, 0.539584, 0.0215535
-0.247474, 0.539051, 0.0264645
-0.242429, 0.538732, 0.0294137
-0.237423, 0.538485, 0.0316935
-0.232328, 0.538022, 0.0359635
-0.227205, 0.537473, 0.0410233
-0.222132, 0.537021, 0.0451951
-0.2171, 0.536653, 0.0485973
-0.211833, 0.535669, 0.0576754
-0.206444, 0.534327, 0.0700574
-0.201349, 0.533696, 0.0758786
-0.196265, 0.533066, 0.0816851
-0.191304, 0.532747, 0.0846357
-0.18639, 0.532544, 0.0865088
-0.18148, 0.532341, 0.0883765
-0.176574, 0.532139, 0.090239
-0.171729, 0.532118, 0.0904374
-0.166894, 0.532126, 0.0903625
-0.162018, 0.532, 0.0915236
-0.15713, 0.531824, 0.0931473
-0.152273, 0.531748, 0.0938506
-0.147444, 0.531767, 0.0936751
-0.142615, 0.531785, 0.093504
-0.137786, 0.531804, 0.0933285
-0.132942, 0.531767, 0.0936737
-0.128104, 0.531754, 0.0937948
-0.123283, 0.531808, 0.0932951
-0.118451, 0.531821, 0.0931778
-0.113614, 0.53181, 0.0932736
-0.108777, 0.531799, 0.0933733
-0.103929, 0.531731, 0.0940056
-0.0990939, 0.531723, 0.0940762
-0.0942723, 0.531793, 0.0934348
-0.0894508, 0.531869, 0.0927291
-0.084631, 0.531966, 0.0918393
-0.079809, 0.53206, 0.0909743
-0.0750026, 0.532277, 0.0889702
-0.0701968, 0.532528, 0.0866528
-0.0653583, 0.532549, 0.0864577
-0.060513, 0.532514, 0.0867844
-0.0556682, 0.532478, 0.0871153
-0.0508247, 0.532449, 0.0873818
-0.0459776, 0.532372, 0.0880899
-0.0411295, 0.532265, 0.0890818
-0.0362835, 0.532158, 0.0900674
-0.0314393, 0.53205, 0.0910592
-0.0265972, 0.531944, 0.0920448
-0.021757, 0.531836, 0.0930352
-0.0169188, 0.531734, 0.0939803
-0.0120826, 0.531636, 0.0948811
-0.00724822, 0.531538, 0.0957866
-0.00241559, 0.53144, 0.0966864
0.00241508, 0.531328, 0.0977201
0.00724365, 0.531203, 0.0988784
0.0120699, 0.531077, 0.10004
0.0168941, 0.530957, 0.101149
0.0217165, 0.530847, 0.102161
0.0265369, 0.530737, 0.103179
0.0313552, 0.530627, 0.104192
0.0361716, 0.530518, 0.105198
0.0409861, 0.530408, 0.106211
0.0457985, 0.530298, 0.107227
0.0506107, 0.530207, 0.10807
0.0554236, 0.530139, 0.108697
0.0602386, 0.530099, 0.109062
0.0650528, 0.53006, 0.109421
0.0698665, 0.530022, 0.109775
0.0746794, 0.529983, 0.110134
0.0794924, 0.529949, 0.110447
0.0843046, 0.529914, 0.110766
0.0891163, 0.529881, 0.111078
0.0939343, 0.529886, 0.111029
0.0987552, 0.529906, 0.110845
0.103577, 0.529927, 0.110654
0.108398, 0.529947, 0.110469
0.113223, 0.52998, 0.11016
0.11805, 0.53002, 0.109796
0.122879, 0.530067, 0.109355
0.127711, 0.530123, 0.108842
0.132546, 0.530184, 0.108283
0.137382, 0.530245, 0.107718
0.142218, 0.530305, 0.107159
0.14706, 0.53038, 0.106475
0.151904, 0.530456, 0.105765
0.156748, 0.530533, 0.105062
0.161607, 0.530651, 0.103974
0.166456, 0.53073, 0.10324
0.171304, 0.530801, 0.102589
0.176153, 0.530872, 0.101933
0.180945, 0.530771, 0.102861
0.185739, 0.530683, 0.103675
0.190554, 0.530658, 0.103909
0.195385, 0.530676, 0.103739
0.200215, 0.53069, 0.103613
0.205001, 0.530591, 0.104525
0.209756, 0.530418, 0.106117
0.214503, 0.530231, 0.107844
0.219277, 0.53012, 0.108869
0.22405, 0.53001, 0.109888
0.228825, 0.52991, 0.110804
0.233606, 0.529827, 0.111575
0.238391, 0.529758, 0.112211
0.243185, 0.529709, 0.112664
0.247977, 0.52966, 0.11311
0.252769, 0.529611, 0.113563
0.257576, 0.529596, 0.113701
0.2624, 0.529614, 0.113536
0.267224, 0.529633, 0.113367
0.272052, 0.529658, 0.113132
0.276881, 0.529685, 0.112882
0.28171, 0.529711, 0.112648
0.286539, 0.529737, 0.112407
0.291405, 0.529827, 0.111576
0.296294, 0.529957, 0.110373
0.301188, 0.530091, 0.109134
0.306087, 0.530229, 0.107861
0.310988, 0.530367, 0.106592
0.315892, 0.530505, 0.105319
0.320824, 0.530686, 0.103643
0.325792, 0.53092, 0.101487
0.330775, 0.531171, 0.0991764
0.335761, 0.531419, 0.0968804
0.340752, 0.53167, 0.0945702
0.345809, 0.532014, 0.091392
0.350919, 0.532429, 0.0875645
0.35604, 0.532849, 0.0836921
0.361169, 0.53327, 0.0798054
0.366366, 0.533778, 0.0751214
0.371575, 0.53429, 0.0703921
0.37681, 0.534827, 0.0654416
0.382212, 0.535583, 0.0584636
0.387735, 0.536489, 0.0501037
0.393566, 0.537792, 0.0380821
0.399754, 0.539546, 0.0219054
0.405738, 0.540984, 0.00862932
-0.257775, 0.546647, 0.0167861
-0.252597, 0.546068, 0.022068
-0.247502, 0.545649, 0.0258861
-0.242463, 0.545338, 0.0287156
-0.237449, 0.545072, 0.0311437
-0.232416, 0.544751, 0.0340729
-0.227319, 0.544262, 0.0385265
-0.222253, 0.543827, 0.0424891
-0.217216, 0.543447, 0.0459599
-0.212178, 0.543045, 0.0496244
-0.206914, 0.542033, 0.0588455
-0.201774, 0.541304, 0.0654898
-0.196671, 0.540642, 0.0715246
-0.191606, 0.540055, 0.0768776
-0.186657, 0.539771, 0.0794654
-0.181717, 0.539498, 0.0819583
-0.176759, 0.539155, 0.0850825
-0.171851, 0.53895, 0.0869493
-0.167006, 0.538937, 0.0870728
-0.162168, 0.538947, 0.0869823
-0.15733, 0.538956, 0.0868964
-0.152472, 0.538896, 0.087441
-0.14759, 0.538743, 0.0888352
-0.142734, 0.538679, 0.0894194
-0.137879, 0.538616, 0.0899982
-0.133034, 0.538584, 0.0902839
-0.128176, 0.538502, 0.0910311
-0.123332, 0.53847, 0.0913258
-0.118507, 0.538523, 0.0908408
-0.113657, 0.538459, 0.0914235
-0.108818, 0.538445, 0.0915537
-0.103968, 0.538377, 0.0921755
-0.0991313, 0.538371, 0.092226
-0.0943144, 0.538479, 0.0912476
-0.0894956, 0.538586, 0.0902734
-0.0846735, 0.538684, 0.0893736
-0.0798505, 0.538789, 0.0884185
-0.0750439, 0.539025, 0.0862665
-0.0702355, 0.539279, 0.0839491
-0.0654027, 0.539371, 0.083118
-0.0605593, 0.53938, 0.0830274
-0.0557108, 0.539344, 0.0833573
-0.0508629, 0.539307, 0.0836935
-0.0460152, 0.539266, 0.084074
-0.0411674, 0.539213, 0.0845585
-0.0363163, 0.539096, 0.0856237
-0.0314669, 0.538973, 0.0867438
-0.0266199, 0.53885, 0.0878587
-0.021775, 0.538729, 0.0889688
-0.0169327, 0.538621, 0.0899534
-0.0120919, 0.538495, 0.0911026
-0.00725371, 0.538389, 0.0920677
-0.00241742, 0.53829, 0.092967
0.00241698, 0.538191, 0.0938711
0.0072497, 0.538091, 0.0947809
0.0120803, 0.537977, 0.0958242
0.0169085, 0.537852, 0.0969615
0.0217351, 0.537741, 0.0979743
0.0265596, 0.537629, 0.0989919
0.031382, 0.537518, 0.100004
0.0362025, 0.537407, 0.101021
0.0410212, 0.537298, 0.102013
0.045838, 0.53719, 0.103
0.0506528, 0.53708, 0.104001
0.0554664, 0.536978, 0.104927
0.0602808, 0.5369, 0.10564
0.0650936, 0.536821, 0.106357
0.0699052, 0.536743, 0.107068
0.0747173, 0.536679, 0.107656
0.079532, 0.53664, 0.108009
0.084346, 0.536601, 0.108367
0.0891601, 0.536566, 0.10868
0.0939808, 0.536574, 0.10861
0.098804, 0.536594, 0.108426
0.103628, 0.536614, 0.108246
0.108452, 0.536636, 0.10805
0.113276, 0.536655, 0.107871
0.118101, 0.536676, 0.107685
0.122926, 0.536697, 0.107494
0.127753, 0.536722, 0.107258
0.132587, 0.536777, 0.106759
0.137423, 0.536834, 0.106244
0.142261, 0.536895, 0.105685
0.1471, 0.536956, 0.10513
0.151941, 0.537018, 0.10456
0.156788, 0.537098, 0.103836
0.161637, 0.537183, 0.103057
0.166485, 0.537255, 0.102402
0.171337, 0.537338, 0.101643
0.176191, 0.537422, 0.100877
0.180989, 0.537335, 0.101677
0.18579, 0.537263, 0.102332
0.190611, 0.53725, 0.102445
0.195449, 0.537284, 0.102137
0.200265, 0.537257, 0.102388
0.205034, 0.537109, 0.103737
0.209778, 0.536902, 0.105618
0.214525, 0.536714, 0.107333
0.2193, 0.536603, 0.108348
0.224073, 0.536491, 0.109368
0.228854, 0.536403, 0.110174
0.233648, 0.536347, 0.110677
0.238443, 0.536296, 0.111144
0.243238, 0.536246, 0.111597
0.248031, 0.536197, 0.112043
0.252824, 0.536148, 0.112495
0.257643, 0.536153, 0.112445
0.26247, 0.536178, 0.112221
0.2673, 0.536205, 0.111972
0.27213, 0.536232, 0.111728
0.27696, 0.536258, 0.111488
0.28179, 0.536284, 0.111253
0.286622, 0.536312, 0.111002
0.291495, 0.536415, 0.110063
0.296389, 0.536552, 0.10881
0.301286, 0.536691, 0.107543
0.306187, 0.536831, 0.106269
0.31109, 0.536971, 0.104991
0.316004, 0.537126, 0.103579
0.320965, 0.537354, 0.101497
0.325953, 0.53762, 0.0990725
0.330945, 0.537886, 0.0966535
0.335942, 0.538152, 0.0942292
0.340949, 0.538425, 0.0917411
0.346069, 0.538867, 0.0877113
0.351186, 0.539292, 0.0838342
0.356311, 0.539719, 0.0799432
0.361486, 0.540207, 0.0754924
0.366698, 0.540738, 0.0706501
0.371912, 0.541258, 0.0659122
0.377253, 0.541947, 0.0596337
0.382665, 0.542717, 0.052608
0.388308, 0.543794, 0.0427923
0.394403, 0.545468, 0.0275331
0.400131, 0.5466, 0.0172157
0.405609, 0.547367, 0.0102234
0.411138, 0.548184, 0.00277138
-0.257851, 0.553357, 0.0153141
-0.252618, 0.552654, 0.0216479
-0.247537, 0.552261, 0.0251875
-0.242497, 0.551946, 0.0280261
-0.237476, 0.551662, 0.0305834
-0.232487, 0.551444, 0.0325494
-0.22741, 0.551001, 0.0365357
-0.222374, 0.550641, 0.039782
-0.217313, 0.550201, 0.0437489
-0.212321, 0.54992, 0.0462804
-0.207257, 0.549435, 0.0506444
-0.202245, 0.549066, 0.0539713
-0.197085, 0.548269, 0.0611458
-0.192138, 0.54804, 0.063211
-0.186941, 0.547065, 0.0719953
-0.181989, 0.546776, 0.0745964
-0.177083, 0.546613, 0.0760713
-0.17218, 0.546448, 0.0775504
-0.167179, 0.545957, 0.0819745
-0.162294, 0.545826, 0.0831552
-0.157443, 0.545803, 0.0833673
-0.152594, 0.545786, 0.0835142
-0.147752, 0.545796, 0.0834284
-0.14291, 0.545804, 0.0833564
-0.138044, 0.54572, 0.0841136
-0.133194, 0.545691, 0.0843697
-0.12833, 0.545606, 0.0851364
-0.12341, 0.54526, 0.088253
-0.118555, 0.545193, 0.0888605
-0.113712, 0.545174, 0.089026
-0.108867, 0.545139, 0.089345
-0.10403, 0.545148, 0.0892611
-0.0991929, 0.545158, 0.0891724
-0.0943616, 0.545201, 0.0887904
-0.0895404, 0.545309, 0.0878158
-0.084716, 0.54541, 0.0869064
-0.0798932, 0.545533, 0.0857925
-0.0750845, 0.545776, 0.083611
-0.0702743, 0.546039, 0.081234
-0.0654413, 0.546153, 0.0802145
-0.0605986, 0.546195, 0.0798349
-0.0557535, 0.546222, 0.0795894
-0.0509019, 0.546186, 0.079915
-0.0460508, 0.546146, 0.0802751
-0.0411992, 0.546092, 0.0807595
-0.0363486, 0.546038, 0.0812492
-0.0314983, 0.545972, 0.0818419
-0.0266465, 0.545848, 0.0829568
-0.0217967, 0.545724, 0.0840764
-0.0169491, 0.5456, 0.0851903
-0.0121046, 0.545515, 0.0859613
-0.00726159, 0.545429, 0.0867367
-0.00241993, 0.545301, 0.0878854
0.00241936, 0.545173, 0.0890379
0.00725649, 0.545046, 0.0901856
0.0120914, 0.544919, 0.0913286
0.016924, 0.544791, 0.0924759
0.0217542, 0.54466, 0.093657
0.0265826, 0.544541, 0.0947337
0.0314094, 0.544431, 0.0957265
0.0362343, 0.54432, 0.0967236
0.0410571, 0.544209, 0.0977249
0.0458782, 0.544099, 0.098711
0.0506971, 0.543988, 0.0997124
0.0555145, 0.543881, 0.100679
0.0603331, 0.543802, 0.101391
0.0651502, 0.543723, 0.102098
0.069966, 0.543644, 0.102809
0.0747803, 0.543565, 0.103526
0.0795933, 0.543486, 0.104238
0.0844047, 0.543405, 0.104963
0.0892143, 0.543323, 0.105703
0.0940311, 0.543291, 0.105991
0.0988531, 0.54329, 0.105996
0.103679, 0.543312, 0.105805
0.108506, 0.543332, 0.105621
0.113333, 0.543353, 0.105431
0.11816, 0.543374, 0.105245
0.122987, 0.543395, 0.105054
0.127816, 0.543418, 0.104849
0.132645, 0.543444, 0.104618
0.137478, 0.543482, 0.104272
0.142317, 0.543538, 0.103763
0.147156, 0.543593, 0.103268
0.151997, 0.54365, 0.102757
0.156836, 0.5437, 0.102311
0.161679, 0.543757, 0.10179
0.166531, 0.543841, 0.101037
0.171385, 0.543925, 0.100277
0.17624, 0.54401, 0.0995121
0.181046, 0.543943, 0.100122
0.185851, 0.543875, 0.100728
0.190675, 0.543867, 0.100802
0.195518, 0.543909, 0.100424
0.200317, 0.543833, 0.101112
0.205062, 0.543616, 0.103066
0.209781, 0.543341, 0.105542
0.214547, 0.543197, 0.106841
0.219322, 0.543083, 0.107866
0.224095, 0.54297, 0.108885
0.228907, 0.542951, 0.109056
0.233742, 0.542988, 0.108725
0.238533, 0.542922, 0.109311
0.243322, 0.542857, 0.109903
0.24811, 0.542792, 0.110488
0.252901, 0.542734, 0.11101
0.25773, 0.542758, 0.110791
0.262559, 0.542783, 0.110567
0.267389, 0.542807, 0.110348
0.272219, 0.542832, 0.110123
0.27705, 0.542857, 0.109904
0.281881, 0.542882, 0.109678
0.286714, 0.54291, 0.109428
0.291611, 0.543056, 0.108111
0.296519, 0.543217, 0.10666
0.301431, 0.543379, 0.105195
0.306345, 0.543542, 0.103733
0.31126, 0.5437, 0.102306
0.316171, 0.543847, 0.100984
0.321155, 0.544112, 0.0985951
0.326145, 0.54438, 0.0961814
0.33114, 0.544649, 0.0937624
0.336141, 0.544919, 0.0913286
0.341202, 0.545278, 0.088088
0.346329, 0.545731, 0.0840087
0.351453, 0.546166, 0.0800929
0.356589, 0.546609, 0.0761037
0.361812, 0.54717, 0.0710492
0.367032, 0.547712, 0.0661683
0.37232, 0.548341, 0.0604997
0.377701, 0.549088, 0.0537763
0.383246, 0.550051, 0.0450964
0.38905, 0.551358, 0.0333214
0.394785, 0.552535, 0.0227218
0.400382, 0.553493, 0.0140905
0.40552, 0.553801, 0.0113196
0.410639, 0.554076, 0.00884151
0.415872, 0.554497, 0.00505066
-0.257999, 0.560226, 0.0124621
-0.252696, 0.559367, 0.0201144
-0.247595, 0.558927, 0.0240302
-0.242532, 0.558558, 0.0273156
-0.237503, 0.558254, 0.0300212
-0.232513, 0.558032, 0.0319963
-0.227496, 0.557733, 0.0346618
-0.222413, 0.557254, 0.0389204
-0.217427, 0.557003, 0.0411592
-0.212404, 0.556644, 0.0443559
-0.207427, 0.556392, 0.0465946
-0.202381, 0.555937, 0.0506449
-0.19739, 0.555616, 0.0535092
-0.192393, 0.555261, 0.0566664
-0.187439, 0.555014, 0.0588646
-0.182494, 0.554781, 0.0609393
-0.177396, 0.55406, 0.0673594
-0.172443, 0.553761, 0.0700197
-0.167495, 0.553463, 0.0726748
-0.162592, 0.553297, 0.0741534
-0.157657, 0.553012, 0.0766892
-0.152799, 0.552987, 0.0769062
-0.147943, 0.552966, 0.0770974
-0.143096, 0.552982, 0.0769558
-0.138249, 0.552997, 0.0768194
-0.133377, 0.552908, 0.0776105
-0.128508, 0.552827, 0.0783377
-0.123643, 0.552756, 0.07897
-0.118687, 0.552259, 0.0833931
-0.113804, 0.552068, 0.0850873
-0.108939, 0.551958, 0.086072
-0.104097, 0.551958, 0.0860682
-0.099256, 0.551961, 0.0860486
-0.0944159, 0.55197, 0.0859642
-0.0895854, 0.552039, 0.0853481
-0.0847586, 0.552141, 0.0844388
-0.0799361, 0.552285, 0.0831561
-0.0751251, 0.552533, 0.0809541
-0.0703129, 0.552805, 0.0785284
-0.0654799, 0.552942, 0.0773101
-0.0606343, 0.552985, 0.0769305
-0.0557878, 0.553027, 0.0765562
-0.0509406, 0.553069, 0.0761766
-0.0460863, 0.553036, 0.0764766
-0.041231, 0.552981, 0.076961
-0.0363767, 0.552926, 0.0774498
-0.0315234, 0.552872, 0.0779338
-0.0266711, 0.552818, 0.0784125
-0.0218185, 0.552734, 0.0791636
-0.016966, 0.552608, 0.0802879
-0.0121164, 0.552507, 0.0811877
-0.00726866, 0.55242, 0.0819535
-0.00242247, 0.552334, 0.0827236
0.00242208, 0.552245, 0.0835185
0.00726465, 0.552116, 0.0846663
0.012105, 0.551986, 0.0858188
0.016943, 0.551858, 0.0869656
0.0217788, 0.551728, 0.0881171
0.0266122, 0.551598, 0.0892739
0.031443, 0.551463, 0.0904751
0.0362715, 0.551328, 0.09168
0.0410976, 0.551192, 0.0928903
0.0459214, 0.551057, 0.0940948
0.0507427, 0.550921, 0.095305
0.0555629, 0.550797, 0.0964103
0.0603854, 0.550714, 0.0971422
0.0652062, 0.550631, 0.0978889
0.0700256, 0.550546, 0.09864
0.0748436, 0.550462, 0.0993862
0.0796601, 0.550379, 0.100127
0.0844752, 0.550295, 0.100873
0.0892889, 0.550212, 0.101613
0.0941083, 0.550172, 0.101971
0.0989317, 0.550157, 0.102104
0.103755, 0.550143, 0.102233
0.108578, 0.550128, 0.102366
0.113401, 0.550113, 0.102494
0.118223, 0.550098, 0.102626
0.123049, 0.5501, 0.102614
0.12788, 0.550124, 0.102398
0.132711, 0.550149, 0.102177
0.137543, 0.550173, 0.101961
0.142376, 0.550199, 0.10173
0.147216, 0.55025, 0.101274
0.152058, 0.550306, 0.100774
0.156899, 0.550353, 0.100358
0.161738, 0.550393, 0.100007
0.166578, 0.550433, 0.0996499
0.171433, 0.550516, 0.0989108
0.176289, 0.550602, 0.0981455
0.181105, 0.550559, 0.0985279
0.185912, 0.550494, 0.099103
0.190742, 0.550496, 0.0990877
0.19558, 0.550521, 0.0988679
0.200342, 0.550336, 0.10051
0.205077, 0.55009, 0.102703
0.2098, 0.549822, 0.105089
0.21457, 0.549685, 0.106308
0.219344, 0.549564, 0.107382
0.224118, 0.54945, 0.108401
0.228959, 0.549502, 0.107936
0.233808, 0.549568, 0.107347
0.238628, 0.549567, 0.107358
0.243419, 0.549501, 0.107949
0.24821, 0.549435, 0.108535
0.253012, 0.549398, 0.108858
0.257843, 0.549423, 0.108639
0.262675, 0.549448, 0.108416
0.267507, 0.549473, 0.108196
0.272339, 0.549498, 0.107972
0.277172, 0.549523, 0.107752
0.282015, 0.549567, 0.107359
0.286867, 0.549628, 0.106811
0.291776, 0.549792, 0.105356
0.296687, 0.549956, 0.103895
0.301601, 0.550121, 0.102429
0.306513, 0.550276, 0.101048
0.311423, 0.550423, 0.0997405
0.31636, 0.550611, 0.0980606
0.321346, 0.550879, 0.0956731
0.326338, 0.551148, 0.0932794
0.331336, 0.55142, 0.0908613
0.336339, 0.551693, 0.0884285
0.341455, 0.552141, 0.0844436
0.346587, 0.5526, 0.0803556
0.351721, 0.553051, 0.0763416
0.356911, 0.553577, 0.0716596
0.362139, 0.554146, 0.0665951
0.36739, 0.554735, 0.0613489
0.372757, 0.555481, 0.0547104
0.378185, 0.556298, 0.0474339
0.383721, 0.557252, 0.0389442
0.389474, 0.558492, 0.0279045
0.395104, 0.559526, 0.018693
0.400379, 0.560039, 0.0141244
0.405392, 0.560178, 0.0128894
0.410376, 0.560274, 0.0120363
0.415465, 0.560508, 0.00994921
0.420563, 0.56075, 0.00779819
-0.258215, 0.567253, 0.00828934
-0.252777, 0.56609, 0.0185208
-0.247631, 0.565546, 0.0233083
-0.242598, 0.565246, 0.025949
-0.237538, 0.564867, 0.0292788
-0.23254, 0.564623, 0.0314326
-0.227554, 0.564399, 0.0334029
-0.222478, 0.563937, 0.0374622
-0.217444, 0.563562, 0.0407629
-0.212464, 0.563313, 0.0429564
-0.207508, 0.563119, 0.0446682
-0.202533, 0.562864, 0.0469117
-0.197522, 0.562491, 0.0501928
-0.192541, 0.562189, 0.0528522
-0.187593, 0.561967, 0.0548024
-0.182666, 0.5618, 0.0562711
-0.177744, 0.561639, 0.0576844
-0.172827, 0.561484, 0.0590529
-0.167911, 0.561324, 0.0604563
-0.162957, 0.561027, 0.0630765
-0.158007, 0.560723, 0.0657511
-0.153066, 0.560431, 0.0683208
-0.148208, 0.560438, 0.0682535
-0.143351, 0.560445, 0.0681915
-0.138493, 0.560453, 0.0681248
-0.13362, 0.560394, 0.0686474
-0.128741, 0.560309, 0.0693941
-0.123832, 0.560074, 0.071456
-0.118947, 0.55994, 0.0726404
-0.114052, 0.559746, 0.0743442
-0.109087, 0.559173, 0.0793915
-0.104187, 0.558894, 0.0818405
-0.0993221, 0.558788, 0.0827751
-0.0944773, 0.558789, 0.0827699
-0.0896327, 0.558791, 0.0827498
-0.0848039, 0.558898, 0.081811
-0.0799789, 0.559045, 0.0805187
-0.0751655, 0.559296, 0.0783072
-0.0703509, 0.559573, 0.0758724
-0.0655188, 0.559742, 0.0743856
-0.0606704, 0.559785, 0.0740066
-0.0558211, 0.559828, 0.0736213
-0.050971, 0.559872, 0.0732412
-0.0461202, 0.559915, 0.0728564
-0.0412626, 0.559877, 0.0731912
-0.0364048, 0.559825, 0.0736504
-0.0315478, 0.559771, 0.0741239
-0.0266917, 0.559716, 0.0746126
-0.0218365, 0.559661, 0.0750961
-0.0169823, 0.559605, 0.0755835
-0.0121281, 0.559512, 0.0764041
-0.00727572, 0.559424, 0.0771794
-0.00242482, 0.559336, 0.07795
0.00242444, 0.55925, 0.0787148
0.00727231, 0.559162, 0.0794849
0.0121185, 0.55907, 0.0802994
0.016962, 0.558939, 0.0814457
0.0218032, 0.558807, 0.0826073
0.0266421, 0.558676, 0.0837636
0.0314786, 0.558544, 0.0849247
0.0363129, 0.558413, 0.0860801
0.0411446, 0.558276, 0.0872803
0.0459739, 0.558139, 0.0884857
0.0508008, 0.558002, 0.089695
0.0556252, 0.557864, 0.090909
0.0604488, 0.55774, 0.0919991
0.0652707, 0.557621, 0.0930433
0.0700906, 0.557502, 0.0940928
0.0749085, 0.557383, 0.0951371
0.0797268, 0.557282, 0.0960264
0.0845459, 0.557198, 0.0967722
0.0893634, 0.557112, 0.0975223
0.0941854, 0.557063, 0.097959
0.0990129, 0.557049, 0.0980835
0.10384, 0.557033, 0.0982218
0.108667, 0.557018, 0.0983543
0.113493, 0.557002, 0.0984926
0.11832, 0.556987, 0.0986252
0.123145, 0.556971, 0.098762
0.127972, 0.556961, 0.0988545
0.1328, 0.556954, 0.0989113
0.137627, 0.556947, 0.0989738
0.142454, 0.55694, 0.0990405
0.147282, 0.556936, 0.0990715
0.15212, 0.556968, 0.0987897
0.156962, 0.557013, 0.0983944
0.161803, 0.557053, 0.098043
0.166645, 0.557093, 0.0976958
0.171487, 0.557133, 0.0973434
0.176338, 0.557197, 0.0967779
0.181164, 0.557178, 0.0969415
0.185975, 0.55712, 0.0974569
0.190811, 0.557135, 0.0973225
0.19562, 0.557075, 0.0978479
0.200368, 0.556846, 0.0998669
0.205064, 0.556488, 0.103012
0.209823, 0.556313, 0.104554
0.214593, 0.556174, 0.105783
0.219366, 0.556048, 0.106886
0.224164, 0.55599, 0.107399
0.229012, 0.556056, 0.106815
0.233861, 0.556122, 0.106236
0.238711, 0.556189, 0.105651
0.243516, 0.556149, 0.105995
0.248308, 0.556082, 0.106591
0.253123, 0.556068, 0.106715
0.257957, 0.556094, 0.106486
0.26279, 0.556119, 0.106263
0.267624, 0.556144, 0.106044
0.272467, 0.556185, 0.105681
0.277312, 0.55623, 0.105282
0.282157, 0.556275, 0.104889
0.287029, 0.55637, 0.104054
0.29194, 0.556537, 0.102589
0.296854, 0.556702, 0.101129
0.301764, 0.556854, 0.0997925
0.306674, 0.557003, 0.0984797
0.311587, 0.557153, 0.0971637
0.316549, 0.557383, 0.0951381
0.321539, 0.557656, 0.0927401
0.326533, 0.557928, 0.0903463
0.331532, 0.5582, 0.0879488
0.336582, 0.558549, 0.0848823
0.341711, 0.559016, 0.0807695
0.346857, 0.559499, 0.0765238
0.352033, 0.560015, 0.0719752
0.357266, 0.560607, 0.0667682
0.362531, 0.561234, 0.0612502
0.367911, 0.562018, 0.0543499
0.373242, 0.56271, 0.0482674
0.378603, 0.563427, 0.0419531
0.384236, 0.564525, 0.0322962
0.389931, 0.565685, 0.0220804
0.39529, 0.566337, 0.0163479
0.400362, 0.566566, 0.0143356
0.405257, 0.566542, 0.0145469
0.410226, 0.566619, 0.0138612
0.415219, 0.566728, 0.0129032
0.420254, 0.566893, 0.0114555
0.425373, 0.567164, 0.00907183
0.430708, 0.567714, 0.00422764
0.654092, 0.565083, 0.0273776
-0.252858, 0.572818, 0.0169249
-0.247681, 0.572201, 0.0222883
-0.242647, 0.571895, 0.0249476
-0.237603, 0.571554, 0.0279198
-0.232559, 0.571198, 0.0310163
-0.227579, 0.570987, 0.0328474
-0.222577, 0.570711, 0.0352488
-0.217461, 0.570122, 0.0403757
-0.21248, 0.56987, 0.0425687
-0.207524, 0.569674, 0.04427
-0.202572, 0.569479, 0.0459671
-0.197616, 0.569264, 0.0478377
-0.192676, 0.569084, 0.0494051
-0.187719, 0.568846, 0.0514736
-0.182785, 0.568664, 0.053061
-0.177856, 0.568489, 0.0545835
-0.172936, 0.568335, 0.055923
-0.168031, 0.568219, 0.0569286
-0.163127, 0.568104, 0.057929
-0.158225, 0.567987, 0.0589452
-0.153322, 0.567859, 0.0600643
-0.148435, 0.567785, 0.0607023
-0.143561, 0.567756, 0.0609579
-0.138687, 0.567726, 0.0612178
-0.133814, 0.567697, 0.0614729
-0.128932, 0.567626, 0.0620899
-0.124047, 0.567533, 0.0629005
-0.119152, 0.567392, 0.0641232
-0.114227, 0.567084, 0.0668006
-0.109329, 0.56689, 0.0684896
-0.104421, 0.566625, 0.0707994
-0.0994746, 0.566115, 0.0752296
-0.0945627, 0.56576, 0.0783234
-0.0896973, 0.565658, 0.0792069
-0.0848528, 0.565685, 0.0789733
-0.0800249, 0.565832, 0.0776916
-0.0752021, 0.566038, 0.0759072
-0.070385, 0.566316, 0.0734825
-0.065555, 0.566525, 0.0716681
-0.0607066, 0.566595, 0.0710602
-0.0558563, 0.566657, 0.0705171
-0.0510031, 0.566701, 0.070137
-0.0461493, 0.566745, 0.0697517
-0.0412909, 0.566737, 0.0698185
-0.0364297, 0.566685, 0.0702777
-0.0315695, 0.566633, 0.0707312
-0.0267102, 0.56658, 0.0711904
-0.0218518, 0.566528, 0.0716434
-0.0169957, 0.566524, 0.0716739
-0.0121398, 0.566524, 0.0716796
-0.00728285, 0.566446, 0.0723553
-0.00242719, 0.566356, 0.0731359
0.00242681, 0.566267, 0.0739112
0.00727939, 0.566177, 0.0746903
0.0121304, 0.566087, 0.0754743
0.01698, 0.565999, 0.0762439
0.0218278, 0.565904, 0.0770674
0.0266721, 0.56577, 0.0782337
0.031514, 0.565637, 0.0793939
0.0363537, 0.565503, 0.0805597
0.0411912, 0.565369, 0.0817199
0.0460264, 0.565237, 0.0828753
0.0508588, 0.565098, 0.0840845
0.0556889, 0.564959, 0.0852885
0.0605174, 0.564828, 0.0864277
0.0653446, 0.564707, 0.0874825
0.07017, 0.564586, 0.0885315
0.0749934, 0.564466, 0.0895758
0.0798146, 0.564346, 0.0906248
0.0846338, 0.564225, 0.0916777
0.0894514, 0.564108, 0.0926957
0.0942703, 0.564011, 0.0935402
0.0990966, 0.563964, 0.0939426
0.103925, 0.563932, 0.0942202
0.108755, 0.563917, 0.0943532
0.113586, 0.563901, 0.094491
0.118416, 0.563886, 0.0946236
0.123246, 0.563869, 0.0947704
0.128077, 0.563861, 0.0948434
0.132908, 0.563853, 0.0949106
0.13774, 0.563846, 0.0949721
0.142568, 0.563828, 0.0951285
0.147395, 0.563805, 0.0953288
0.152221, 0.563783, 0.0955243
0.157061, 0.56381, 0.0952873
0.161902, 0.563838, 0.0950451
0.166743, 0.563866, 0.0947976
0.171585, 0.563894, 0.0945549
0.176415, 0.563884, 0.0946436
0.18123, 0.563825, 0.0951552
0.18604, 0.563759, 0.0957303
0.19088, 0.56378, 0.0955462
0.195644, 0.563584, 0.0972528
0.200355, 0.563248, 0.100175
0.205073, 0.562946, 0.102803
0.209846, 0.562805, 0.104027
0.214617, 0.562665, 0.105246
0.219388, 0.562532, 0.1064
0.224215, 0.562546, 0.106277
0.229064, 0.562614, 0.105693
0.233914, 0.56268, 0.105114
0.238766, 0.562747, 0.10453
0.243614, 0.562804, 0.10404
0.248407, 0.562735, 0.104635
0.253235, 0.562744, 0.104561
0.25807, 0.56277, 0.104332
0.262912, 0.562809, 0.10399
0.267758, 0.562854, 0.103602
0.272604, 0.562899, 0.103209
0.277451, 0.562944, 0.102822
0.282299, 0.562989, 0.102428
0.287191, 0.56312, 0.101286
0.292104, 0.563285, 0.0998511
0.297011, 0.563436, 0.0985403
0.301922, 0.563587, 0.0972233
0.306835, 0.563738, 0.0959125
0.31175, 0.563889, 0.0945959
0.316751, 0.564188, 0.0919952
0.321763, 0.564497, 0.0893102
0.326781, 0.564807, 0.0866103
0.331764, 0.565049, 0.0845108
0.336901, 0.565541, 0.080225
0.342044, 0.56603, 0.0759749
0.347199, 0.566525, 0.0716701
0.352427, 0.567124, 0.0664587
0.357713, 0.567798, 0.0605898
0.363065, 0.568558, 0.0539823
0.368367, 0.569221, 0.048213
0.3737, 0.569913, 0.0421915
0.379114, 0.57071, 0.0352645
0.384912, 0.572056, 0.0235481
0.390367, 0.572865, 0.0165148
0.395579, 0.573303, 0.0127048
0.400427, 0.573209, 0.013525
0.40529, 0.573136, 0.0141521
0.410149, 0.573063, 0.0147934
0.415065, 0.573068, 0.0147462
0.42006, 0.573181, 0.013763
0.425058, 0.573296, 0.0127654
0.430156, 0.573541, 0.0106349
0.435354, 0.573913, 0.00740004
0.635271, 0.572316, 0.0212903
0.639505, 0.571716, 0.0265126
0.644086, 0.571432, 0.0289788
0.648625, 0.571116, 0.0317259
0.653406, 0.571017, 0.0325942
0.658341, 0.571052, 0.0322857
0.663278, 0.571088, 0.0319719
0.668208, 0.571118, 0.0317116
0.673129, 0.571139, 0.0315256
0.6781, 0.571203, 0.0309696
0.683102, 0.571292, 0.0302014
0.688115, 0.571388, 0.0293603
0.693317, 0.571639, 0.0271749
-0.367095, 0.581439, -0.000916958
-0.362283, 0.581625, -0.00251818
-0.25301, 0.579711, 0.0139399
-0.24776, 0.578925, 0.0207009
-0.242682, 0.578515, 0.0242329
-0.237667, 0.578241, 0.0265899
-0.232608, 0.577846, 0.029983
-0.227595, 0.577553, 0.0325079
-0.222619, 0.577341, 0.0343246
-0.217548, 0.576868, 0.0383973
-0.212497, 0.576428, 0.0421791
-0.207536, 0.576217, 0.0439992
-0.202548, 0.575919, 0.0465593
-0.19761, 0.575753, 0.0479832
-0.19267, 0.575571, 0.0495501
-0.187762, 0.57548, 0.0503383
-0.182851, 0.575371, 0.05127
-0.177941, 0.575261, 0.052217
-0.173036, 0.575163, 0.0530591
-0.16813, 0.575054, 0.0539951
-0.16322, 0.574925, 0.0551057
-0.158312, 0.574795, 0.0562301
-0.153408, 0.574671, 0.0572891
-0.148515, 0.574582, 0.0580564
-0.143631, 0.574522, 0.0585699
-0.138754, 0.574492, 0.0588298
-0.133881, 0.574473, 0.0589957
-0.12901, 0.574461, 0.0590959
-0.124139, 0.574448, 0.0592113
-0.119265, 0.574421, 0.0594406
-0.114413, 0.574501, 0.0587511
-0.109499, 0.574264, 0.0607972
-0.104592, 0.574041, 0.0627093
-0.0996962, 0.573861, 0.0642591
-0.0947569, 0.573401, 0.0682158
-0.0898061, 0.572817, 0.0732408
-0.0849189, 0.572596, 0.0751424
-0.080073, 0.572643, 0.0747342
-0.075239, 0.572787, 0.0734968
-0.0704186, 0.573062, 0.0711317
-0.0655897, 0.573303, 0.0690594
-0.0607391, 0.573377, 0.0684223
-0.0558868, 0.573447, 0.0678191
-0.0510334, 0.573518, 0.0672107
-0.0461783, 0.573583, 0.0666471
-0.0413191, 0.573607, 0.0664454
-0.0364546, 0.573554, 0.0669041
-0.0315927, 0.573531, 0.0671
-0.0267324, 0.573531, 0.0671015
-0.0218719, 0.57353, 0.0671077
-0.0170115, 0.57353, 0.0671086
-0.012151, 0.573529, 0.0671144
-0.00729002, 0.573484, 0.0675015
-0.00242958, 0.573393, 0.0682817
0.00242929, 0.573325, 0.0688677
0.00728739, 0.573277, 0.0692797
0.0121447, 0.57323, 0.0696869
0.0170012, 0.573182, 0.0700984
0.0218569, 0.573135, 0.0705047
0.0267092, 0.573033, 0.071382
0.031556, 0.572863, 0.0728412
0.0363999, 0.572693, 0.0743041
0.0412411, 0.572524, 0.0757623
0.0460793, 0.572354, 0.0772252
0.0509164, 0.572204, 0.0785141
0.0557526, 0.572069, 0.0796685
0.0605861, 0.571932, 0.0808473
0.0654189, 0.57181, 0.0819016
0.07025, 0.57169, 0.0829315
0.0750792, 0.571571, 0.0839553
0.0799067, 0.571454, 0.0849638
0.0847319, 0.571335, 0.0859876
0.0895551, 0.571216, 0.0870061
0.0943779, 0.571108, 0.0879393
0.0992067, 0.571044, 0.0884905
0.104035, 0.570985, 0.0889964
0.108866, 0.570941, 0.0893779
0.113696, 0.570897, 0.0897541
0.118525, 0.570854, 0.0901251
0.123353, 0.57081, 0.0905008
0.128176, 0.570747, 0.0910401
0.133008, 0.570724, 0.0912361
0.137839, 0.570701, 0.0914373
0.14267, 0.570678, 0.0916333
0.1475, 0.570655, 0.0918336
0.152333, 0.570644, 0.0919294
0.157177, 0.570673, 0.0916829
0.16202, 0.570696, 0.0914807
0.166847, 0.570665, 0.0917497
0.171674, 0.570635, 0.0920033
0.176498, 0.570597, 0.0923309
0.181307, 0.570511, 0.0930705
0.186136, 0.570494, 0.0932188
0.190966, 0.570481, 0.0933323
0.19573, 0.570275, 0.0950985
0.200405, 0.569825, 0.0989728
0.205124, 0.569519, 0.101601
0.209888, 0.569352, 0.103043
0.21465, 0.569184, 0.104489
0.219418, 0.569039, 0.105732
0.224266, 0.569105, 0.105163
0.229116, 0.569173, 0.104579
0.233968, 0.569242, 0.103991
0.238821, 0.56931, 0.103406
0.243674, 0.569377, 0.102827
0.248509, 0.5694, 0.102629
0.253351, 0.569437, 0.102307
0.258197, 0.569482, 0.10192
0.263045, 0.569528, 0.101528
0.267893, 0.569574, 0.101131
0.272742, 0.56962, 0.100738
0.277591, 0.569665, 0.10035
0.282441, 0.569711, 0.0999565
0.287349, 0.569869, 0.098597
0.292262, 0.570032, 0.0971918
0.297193, 0.570225, 0.0955338
0.302128, 0.570417, 0.0938807
0.307065, 0.57061, 0.0922227
0.312028, 0.570841, 0.0902324
0.317039, 0.571155, 0.0875335
0.322049, 0.571456, 0.0849485
0.327013, 0.571667, 0.0831313
0.332086, 0.572061, 0.0797434
0.337228, 0.57256, 0.075449
0.342378, 0.573059, 0.0711598
0.34761, 0.573679, 0.0658255
0.352895, 0.574366, 0.0599122
0.358196, 0.575064, 0.053915
0.363494, 0.575735, 0.0481415
0.368926, 0.576599, 0.0407095
0.374394, 0.577496, 0.0329952
0.38005, 0.578657, 0.0230088
0.385546, 0.579547, 0.015357
0.390988, 0.580334, 0.00858164
0.400907, 0.580455, 0.00754452
0.405517, 0.580013, 0.0113497
0.410195, 0.579677, 0.0142384
0.415049, 0.579595, 0.0149441
0.419901, 0.579512, 0.0156541
0.424845, 0.579557, 0.0152698
0.429867, 0.579707, 0.0139799
0.434972, 0.579963, 0.011775
0.440157, 0.580319, 0.00871372
0.625016, 0.578447, 0.0248199
0.629478, 0.578042, 0.0282984
0.633934, 0.577638, 0.0317707
0.638226, 0.577093, 0.036459
0.642778, 0.576789, 0.0390716
0.647471, 0.576616, 0.0405655
0.652298, 0.576563, 0.041019
0.657132, 0.576518, 0.0414085
0.661971, 0.576477, 0.0417628
0.666808, 0.576435, 0.0421214
0.671652, 0.5764, 0.0424256
0.676567, 0.576425, 0.0422034
0.681566, 0.576522, 0.0413752
0.686555, 0.576608, 0.0406303
0.691546, 0.576695, 0.0398808
0.696732, 0.576943, 0.0377483
0.701906, 0.577177, 0.0357399
0.707084, 0.577411, 0.0337262
0.712338, 0.577704, 0.0312057
0.71754, 0.577951, 0.0290847
0.723036, 0.578429, 0.0249729
-0.37607, 0.586636, 0.0107565
-0.370918, 0.586264, 0.0139217
-0.366051, 0.586337, 0.0132976
-0.361048, 0.586191, 0.0145411
-0.356201, 0.586299, 0.0136199
-0.351527, 0.586698, 0.0102262
-0.347087, 0.587504, 0.00337887
-0.247909, 0.585818, 0.0177145
-0.242718, 0.585138, 0.0234966
-0.237701, 0.584859, 0.0258737
-0.232675, 0.584546, 0.0285325
-0.22761, 0.584118, 0.0321684
-0.222634, 0.583905, 0.0339842
-0.217576, 0.583462, 0.0377488
-0.212503, 0.582958, 0.0420356
-0.207506, 0.582644, 0.0447087
-0.202537, 0.582397, 0.0468125
-0.197604, 0.58224, 0.0481467
-0.192678, 0.5821, 0.0493364
-0.187776, 0.582026, 0.0499659
-0.182871, 0.581935, 0.0507388
-0.17796, 0.581824, 0.0516853
-0.173061, 0.581745, 0.0523586
-0.168165, 0.581671, 0.0529871
-0.163269, 0.581596, 0.0536199
-0.158376, 0.581523, 0.0542383
-0.153488, 0.581468, 0.0547123
-0.1486, 0.581409, 0.0552106
-0.143706, 0.58132, 0.0559721
-0.138822, 0.581268, 0.0564113
-0.133947, 0.581247, 0.0565863
-0.12907, 0.581222, 0.0568061
-0.124194, 0.581195, 0.0570307
-0.119322, 0.581189, 0.0570807
-0.114473, 0.581295, 0.0561833
-0.109617, 0.581378, 0.0554781
-0.104783, 0.581588, 0.0536861
-0.0998534, 0.58126, 0.0564766
-0.0949446, 0.581029, 0.0584474
-0.0900243, 0.580697, 0.0612664
-0.0851093, 0.580364, 0.0641007
-0.0801466, 0.579646, 0.0702071
-0.0752849, 0.579613, 0.0704899
-0.0704513, 0.579807, 0.0688396
-0.0656202, 0.58005, 0.0667677
-0.0607718, 0.580167, 0.0657725
-0.0559168, 0.580238, 0.0651698
-0.0510623, 0.580327, 0.0644126
-0.0462066, 0.580419, 0.0636301
-0.041348, 0.580493, 0.0630016
-0.0364847, 0.580513, 0.0628347
-0.0316199, 0.58051, 0.0628614
-0.0267553, 0.580507, 0.0628829
-0.0218911, 0.580518, 0.0627894
-0.0170281, 0.580577, 0.0622845
-0.0121645, 0.58065, 0.0616641
-0.00729981, 0.580743, 0.0608807
-0.00243315, 0.580723, 0.0610442
0.00243282, 0.580644, 0.0617194
0.00729756, 0.580564, 0.0623999
0.0121615, 0.58051, 0.0628557
0.0170247, 0.580462, 0.0632672
0.0218871, 0.580414, 0.063674
0.0267487, 0.580366, 0.0640845
0.0316032, 0.580204, 0.0654635
0.0364545, 0.580032, 0.066927
0.0413028, 0.579859, 0.0683942
0.0461483, 0.579687, 0.0698566
0.0509909, 0.579516, 0.0713148
0.0558305, 0.579343, 0.0727863
0.0606674, 0.579171, 0.0742431
0.0655047, 0.57903, 0.0754471
0.0703378, 0.578873, 0.0767837
0.0751673, 0.578708, 0.0781856
0.0799995, 0.578582, 0.0792537
0.0848303, 0.578462, 0.080277
0.0896592, 0.578342, 0.081295
0.0944861, 0.578223, 0.0823088
0.09932, 0.578156, 0.0828795
0.104153, 0.578091, 0.0834351
0.108985, 0.578026, 0.0839853
0.113819, 0.577975, 0.0844212
0.118653, 0.57793, 0.0848022
0.123487, 0.577886, 0.0851779
0.128314, 0.577815, 0.0857768
0.133139, 0.577743, 0.08639
0.137965, 0.577676, 0.0869584
0.142789, 0.57761, 0.0875216
0.147612, 0.577543, 0.0880899
0.152437, 0.577485, 0.088583
0.157268, 0.577455, 0.0888419
0.162098, 0.577424, 0.0891061
0.166928, 0.577393, 0.089366
0.171757, 0.577362, 0.0896292
0.176577, 0.577302, 0.0901456
0.18138, 0.57719, 0.0910931
0.186216, 0.57719, 0.0910931
0.191053, 0.57719, 0.0910974
0.195823, 0.576994, 0.0927639
0.200513, 0.576574, 0.0963297
0.205238, 0.576277, 0.0988588
0.210006, 0.576108, 0.100301
0.21478, 0.575965, 0.101509
0.219584, 0.575904, 0.102027
0.22443, 0.575956, 0.101587
0.229277, 0.576007, 0.101153
0.234125, 0.576059, 0.100713
0.238974, 0.576111, 0.100267
0.243824, 0.576165, 0.0998077
0.248678, 0.576225, 0.0993028
0.253533, 0.576284, 0.0988011
0.258384, 0.576333, 0.0983853
0.263233, 0.576376, 0.0980134
0.268084, 0.576421, 0.0976362
0.272936, 0.576466, 0.0972533
0.277787, 0.576509, 0.0968862
0.282653, 0.576581, 0.0962749
0.287579, 0.576769, 0.094677
0.292507, 0.576956, 0.0930839
0.297443, 0.577152, 0.0914164
0.302381, 0.577346, 0.0897641
0.307324, 0.577542, 0.0880966
0.312311, 0.577816, 0.0857692
0.317295, 0.578074, 0.0835767
0.322258, 0.578287, 0.0817647
0.327325, 0.578678, 0.0784426
0.332504, 0.579253, 0.0735493
0.337709, 0.579856, 0.0684237
0.342979, 0.580551, 0.06251
0.348277, 0.581273, 0.056365
0.35361, 0.582034, 0.0498981
0.358965, 0.58281, 0.0432982
0.364388, 0.583673, 0.0359612
0.369825, 0.584536, 0.0286202
0.375376, 0.585553, 0.0199676
0.406015, 0.587286, 0.0052309
0.410588, 0.586789, 0.00945568
0.415252, 0.586431, 0.0124969
0.419923, 0.586091, 0.0153942
0.424762, 0.585992, 0.0162377
0.42966, 0.585975, 0.0163822
0.434686, 0.58613, 0.015058
0.439824, 0.586432, 0.0124912
0.445126, 0.586944, 0.00813961
0.610786, 0.585439, 0.0209398
0.615221, 0.584991, 0.0247498
0.619456, 0.584361, 0.0301018
0.623286, 0.583363, 0.0385914
0.628082, 0.583277, 0.0393276
0.632741, 0.583067, 0.0411129
0.637296, 0.582764, 0.0436907
0.641785, 0.582406, 0.0467353
0.646481, 0.582239, 0.0481491
0.651286, 0.582174, 0.0487099
0.656158, 0.582167, 0.0487638
0.661029, 0.58216, 0.0488214
0.665901, 0.582155, 0.0488648
0.67078, 0.582156, 0.0488625
0.675671, 0.582167, 0.0487671
0.680618, 0.582225, 0.0482726
0.685588, 0.582302, 0.047616
0.690591, 0.582407, 0.0467272
0.695596, 0.582511, 0.0458436
0.700601, 0.582614, 0.0449653
0.70578, 0.582859, 0.042881
0.710915, 0.583064, 0.0411377
0.715972, 0.583204, 0.0399485
0.721139, 0.58343, 0.0380282
0.726568, 0.583864, 0.0343332
0.731949, 0.584254, 0.0310178
0.737259, 0.584582, 0.0282278
-0.380787, 0.592881, 0.0133576
-0.375536, 0.592349, 0.0178342
-0.370538, 0.592206, 0.0190387
-0.36576, 0.592417, 0.0172668
-0.360672, 0.592124, 0.0197287
-0.355894, 0.592338, 0.0179257
-0.351082, 0.592501, 0.0165544
-0.346262, 0.592657, 0.0152469
-0.341695, 0.593255, 0.0102172
-0.248135, 0.592903, 0.0131788
-0.242806, 0.591891, 0.0216889
-0.237745, 0.591503, 0.0249472
-0.232723, 0.591199, 0.0275068
-0.227677, 0.590819, 0.0307055
-0.222649, 0.590469, 0.0336523
-0.217565, 0.589951, 0.038002
-0.212491, 0.589439, 0.0423074
-0.207487, 0.5891, 0.0451593
-0.202533, 0.58889, 0.0469246
-0.197598, 0.588728, 0.0482888
-0.192692, 0.588646, 0.0489826
-0.187791, 0.588573, 0.0495915
-0.18289, 0.588499, 0.0502157
-0.177984, 0.588403, 0.0510235
-0.173086, 0.58833, 0.0516372
-0.168194, 0.588273, 0.0521164
-0.163303, 0.588217, 0.0525904
-0.158413, 0.58816, 0.0530696
-0.153524, 0.588102, 0.0535536
-0.148636, 0.588045, 0.0540323
-0.143749, 0.58799, 0.0544958
-0.138864, 0.587941, 0.0549145
-0.133988, 0.587923, 0.0550604
-0.129112, 0.587908, 0.0551906
-0.124237, 0.587891, 0.055335
-0.119374, 0.587935, 0.0549588
-0.114526, 0.588064, 0.0538726
-0.109677, 0.588192, 0.0528002
-0.104842, 0.588418, 0.050899
-0.100005, 0.588645, 0.0489931
-0.0951179, 0.588593, 0.0494246
-0.0901819, 0.588213, 0.0526214
-0.0852725, 0.587974, 0.0546308
-0.0803562, 0.587656, 0.0573101
-0.0754306, 0.587223, 0.0609479
-0.0704979, 0.586672, 0.0655832
-0.0656538, 0.586832, 0.0642366
-0.0608148, 0.587065, 0.0622787
-0.0559593, 0.587166, 0.0614276
-0.0511008, 0.587254, 0.0606904
-0.0462394, 0.587322, 0.0601163
-0.0413793, 0.587424, 0.0592604
-0.0365195, 0.587558, 0.0581298
-0.0316542, 0.587633, 0.0575013
-0.0267872, 0.587693, 0.0569959
-0.0219191, 0.587755, 0.0564756
-0.0170508, 0.587848, 0.0556927
-0.0121811, 0.587941, 0.0549135
-0.00730989, 0.588042, 0.0540595
-0.00243708, 0.58816, 0.053072
0.00243698, 0.588137, 0.0532608
0.00730996, 0.588048, 0.0540099
0.0121816, 0.587967, 0.0546951
0.0170519, 0.587886, 0.0553751
0.021921, 0.587806, 0.0560489
0.0267886, 0.587725, 0.0567279
0.0316534, 0.587619, 0.05762
0.0365093, 0.587394, 0.0595102
0.0413649, 0.58722, 0.0609779
0.0462177, 0.587046, 0.0624404
0.0510676, 0.586871, 0.0639076
0.0559145, 0.586696, 0.0653796
0.0607585, 0.586522, 0.0668464
0.0656005, 0.586355, 0.0682483
0.0704438, 0.586222, 0.0693665
0.0752849, 0.586089, 0.0704899
0.0801215, 0.585939, 0.0717463
0.0849531, 0.585772, 0.0731578
0.089782, 0.585604, 0.074563
0.0946078, 0.585437, 0.075973
0.0994386, 0.585314, 0.0770102
0.104272, 0.585218, 0.0778136
0.10911, 0.585153, 0.0783644
0.113946, 0.585086, 0.0789194
0.118782, 0.585022, 0.0794587
0.123621, 0.584978, 0.0798349
0.128453, 0.584904, 0.0804534
0.133283, 0.584829, 0.0810876
0.138112, 0.584754, 0.0817151
0.142941, 0.584686, 0.0822883
0.14777, 0.584618, 0.0828562
0.152592, 0.584533, 0.0835776
0.157409, 0.584431, 0.0844326
0.162217, 0.584303, 0.0855112
0.167023, 0.584176, 0.0865736
0.17184, 0.584095, 0.0872545
0.176648, 0.583988, 0.0881577
0.181453, 0.583874, 0.0891151
0.186297, 0.583892, 0.0889664
0.191141, 0.583907, 0.0888419
0.195912, 0.583705, 0.090538
0.200632, 0.583365, 0.093399
0.205354, 0.583043, 0.0961061
0.21014, 0.582916, 0.0971708
0.214944, 0.582845, 0.0977736
0.21975, 0.58278, 0.0983219
0.2246, 0.582832, 0.0978823
0.229451, 0.582885, 0.0974383
0.234303, 0.582938, 0.0969882
0.239158, 0.582998, 0.0964837
0.244014, 0.583056, 0.095994
0.248872, 0.583117, 0.0954885
0.25373, 0.583177, 0.0949788
0.258591, 0.583238, 0.0944633
0.263451, 0.583299, 0.0939527
0.268309, 0.58335, 0.0935264
0.273164, 0.583395, 0.0931439
0.27802, 0.583439, 0.0927763
0.282903, 0.583538, 0.0919476
0.287832, 0.583727, 0.0903497
0.292765, 0.583917, 0.0887575
0.297701, 0.584108, 0.0871506
0.30264, 0.584297, 0.0855575
0.307592, 0.584506, 0.0838013
0.312644, 0.584895, 0.0805335
0.317705, 0.585288, 0.0772214
0.322772, 0.585682, 0.0739141
0.327931, 0.586227, 0.069324
0.333186, 0.586927, 0.0634413
0.338461, 0.58764, 0.0574446
0.343801, 0.588445, 0.0506725
0.349176, 0.589285, 0.0436072
0.354552, 0.590105, 0.036706
0.360029, 0.591068, 0.0286126
0.365881, 0.592612, 0.0156226
0.41563, 0.593523, 0.00796127
0.420095, 0.592883, 0.0133419
0.424733, 0.592498, 0.0165796
0.429582, 0.592414, 0.0172887
0.434491, 0.592413, 0.0172997
0.439554, 0.59262, 0.0155544
0.444749, 0.592999, 0.0123706
0.450266, 0.593793, 0.0056901
0.600988, 0.591993, 0.0208263
0.605427, 0.591537, 0.0246673
0.609159, 0.590403, 0.0341992
0.613663, 0.590029, 0.0373473
0.61822, 0.589712, 0.0400167
0.622566, 0.5892, 0.0443254
0.627223, 0.588988, 0.0461054
0.631937, 0.588832, 0.0474167
0.636661, 0.588687, 0.0486341
0.641418, 0.588576, 0.0495696
0.646174, 0.588465, 0.0505004
0.65098, 0.588401, 0.0510411
0.655842, 0.588389, 0.0511436
0.660704, 0.588376, 0.05125
0.665567, 0.588364, 0.051352
0.670428, 0.588352, 0.0514579
0.675303, 0.58835, 0.0514698
0.680222, 0.588388, 0.0511522
0.685141, 0.588425, 0.0508394
0.690061, 0.588462, 0.0505309
0.694996, 0.588511, 0.0501189
0.699944, 0.588571, 0.0496135
0.704946, 0.588675, 0.048739
0.710027, 0.588843, 0.047328
0.71511, 0.58901, 0.0459228
0.720268, 0.589236, 0.0440202
0.725632, 0.589627, 0.0407286
0.73098, 0.589999, 0.0375991
0.736165, 0.590236, 0.035605
0.741617, 0.590683, 0.031848
-0.385643, 0.599343, 0.0140996
-0.380437, 0.598881, 0.0179467
-0.375385, 0.598653, 0.0198388
-0.370398, 0.598524, 0.0209146
-0.36546, 0.598472, 0.0213509
-0.360866, 0.598989, 0.0170493
-0.35563, 0.598439, 0.0216246
-0.350835, 0.598627, 0.0200558
-0.346029, 0.598801, 0.0186095
-0.341324, 0.599159, 0.0156326
-0.337117, 0.600413, 0.00520039
-0.248445, 0.600203, 0.00694799
-0.242986, 0.598875, 0.0179954
-0.237799, 0.598173, 0.0238318
-0.232766, 0.597842, 0.0265889
-0.227715, 0.597444, 0.0298958
-0.222668, 0.597045, 0.0332189
-0.217511, 0.596323, 0.0392246
-0.212471, 0.595896, 0.0427766
-0.207467, 0.595552, 0.0456376
-0.202529, 0.595388, 0.0470057
-0.197603, 0.595249, 0.0481615
-0.192701, 0.595179, 0.0487456
-0.1878, 0.595108, 0.049335
-0.182906, 0.595053, 0.0497904
-0.17802, 0.595024, 0.0500321
-0.173127, 0.594972, 0.050467
-0.168234, 0.594914, 0.0509458
-0.163342, 0.594857, 0.0514207
-0.158451, 0.594799, 0.0518999
-0.153561, 0.594743, 0.0523734
-0.148672, 0.594687, 0.0528321
-0.143785, 0.594635, 0.053266
-0.1389, 0.594587, 0.0536647
-0.134018, 0.594554, 0.0539389
-0.129141, 0.594537, 0.0540791
-0.124269, 0.594543, 0.0540361
-0.11941, 0.594611, 0.0534706
-0.11456, 0.594739, 0.0524039
-0.109724, 0.594946, 0.0506778
-0.104898, 0.595235, 0.0482802
-0.100065, 0.595511, 0.0459771
-0.0952091, 0.595667, 0.0446815
-0.0903511, 0.595828, 0.0433402
-0.0854215, 0.595509, 0.0459952
-0.0805097, 0.595284, 0.0478702
-0.0755928, 0.594989, 0.0503259
-0.0706729, 0.594627, 0.0533323
-0.0657171, 0.593888, 0.0594807
-0.060858, 0.593973, 0.058774
-0.0560114, 0.594208, 0.0568204
-0.0511529, 0.594348, 0.0556569
-0.0462912, 0.594476, 0.0545874
-0.0414274, 0.594606, 0.0535121
-0.0365616, 0.594736, 0.0524316
-0.0316937, 0.594867, 0.0513363
-0.026823, 0.594982, 0.0503845
-0.0219505, 0.595101, 0.0493879
-0.017076, 0.595221, 0.0483961
-0.0121996, 0.59534, 0.047399
-0.0073212, 0.59546, 0.0464063
-0.00244085, 0.59558, 0.0454087
0.00244134, 0.595699, 0.044416
0.00732375, 0.595667, 0.0446787
0.0122039, 0.595549, 0.0456614
