-0.00731979, 0.38063, 0.0473604
-0.00244012, 0.380666, 0.0468969
0.00244035, 0.380702, 0.0464282
0.00732265, 0.380779, 0.0454259
0.0122077, 0.38088, 0.0441098
0.0170947, 0.380968, 0.0429673
0.0219835, 0.381046, 0.0419497
0.0268768, 0.381161, 0.0404577
0.0317787, 0.381345, 0.038064
0.0366854, 0.381529, 0.0356741
0.0415969, 0.381713, 0.0332799
0.0465131, 0.381897, 0.03088
0.0514596, 0.382271, 0.0260129
0.0564188, 0.382666, 0.0208716
0.0613884, 0.383063, 0.0157046
0.066409, 0.383697, 0.0074625
0.1723, 0.389547, -0.0686646
0.176916, 0.388716, -0.0578504
0.181685, 0.388259, -0.0518956
0.186501, 0.387921, -0.0475016
0.191367, 0.387705, -0.0446858
0.191445, 0.378043, 0.0810289
0.196073, 0.377623, 0.0864987
0.200689, 0.377198, 0.0920224
0.205434, 0.377031, 0.0941935
0.210161, 0.37684, 0.0966783
0.214884, 0.37665, 0.0991569
0.219667, 0.376571, 0.100176
0.224449, 0.376494, 0.101181
0.229228, 0.376417, 0.102189
0.234024, 0.376368, 0.102823
0.238863, 0.37639, 0.102537
0.243694, 0.376399, 0.102424
0.248563, 0.376465, 0.101559
0.253465, 0.376576, 0.100111
0.258396, 0.376726, 0.0981612
0.263332, 0.376878, 0.0961857
0.26828, 0.377042, 0.0940552
0.273233, 0.377206, 0.0919209
0.278169, 0.377343, 0.0901394
0.283118, 0.377491, 0.088213
0.288047, 0.377608, 0.0866904
0.29298, 0.377727, 0.0851431
0.297971, 0.377915, 0.0826936
0.302988, 0.37813, 0.0799017
0.307856, 0.378154, 0.0795827
0.312715, 0.378167, 0.0794182
0.317688, 0.378316, 0.077477
0.322755, 0.37857, 0.0741677
0.327848, 0.378846, 0.0705743
0.333054, 0.379244, 0.0654054
-0.205719, 0.393262, -0.030992
-0.198427, 0.388689, 0.027504
-0.192953, 0.387534, 0.0422854
-0.187686, 0.386748, 0.0523405
-0.182567, 0.38623, 0.0589638
-0.177503, 0.385805, 0.0644073
-0.172482, 0.385453, 0.0688987
-0.167369, 0.384867, 0.0764046
-0.162249, 0.384231, 0.0845437
-0.157271, 0.383902, 0.0887513
-0.152326, 0.383636, 0.0921474
-0.147395, 0.383387, 0.0953288
-0.142474, 0.383149, 0.0983763
-0.137584, 0.382982, 0.100521
-0.132705, 0.382833, 0.102422
-0.127844, 0.382728, 0.103759
-0.12299, 0.382635, 0.104952
-0.118149, 0.382578, 0.105682
-0.113319, 0.38255, 0.106036
-0.108505, 0.382579, 0.105669
-0.103684, 0.382585, 0.105595
-0.098869, 0.382615, 0.105207
-0.0940832, 0.382766, 0.103279
-0.0893032, 0.382958, 0.100826
-0.0845321, 0.383212, 0.0975714
-0.0798109, 0.383737, 0.0908518
-0.0750723, 0.384241, 0.0844059
-0.0705469, 0.385981, 0.0621548
-0.0657568, 0.386423, 0.0564957
-0.0608757, 0.386358, 0.0573311
-0.0559971, 0.386298, 0.0580916
-0.0511298, 0.386314, 0.0578895
-0.0462634, 0.38634, 0.0575523
-0.0413964, 0.386366, 0.0572205
-0.0365287, 0.386393, 0.0568833
-0.0316603, 0.386419, 0.056551
-0.0267914, 0.386445, 0.0562134
-0.02192, 0.386441, 0.0562592
-0.0170478, 0.386416, 0.0565791
-0.0121773, 0.386428, 0.0564351
-0.0073066, 0.386439, 0.0562863
-0.00243568, 0.386469, 0.0559025
0.0024359, 0.386504, 0.0554538
0.00730848, 0.386539, 0.0550098
0.0121819, 0.386573, 0.0545712
0.0170562, 0.386608, 0.0541267
0.0219315, 0.386643, 0.0536771
0.0268096, 0.386708, 0.0528536
0.0316934, 0.386823, 0.0513768
0.0365832, 0.386969, 0.0495062
0.0414807, 0.387153, 0.0471516
0.0463829, 0.387338, 0.0447917
0.0512897, 0.387522, 0.0424371
0.0562013, 0.387707, 0.0400681
0.0611195, 0.387904, 0.0375428
0.0660602, 0.388206, 0.0336871
0.0710291, 0.388619, 0.0284014
0.0760424, 0.389206, 0.0208869
0.081086, 0.389868, 0.0124216
0.0863773, 0.391577, -0.00943661
0.172007, 0.395532, -0.0600405
0.176762, 0.395017, -0.0534434
0.181557, 0.394616, -0.048316
0.186411, 0.394363, -0.0450783
0.186494, 0.38429, 0.0837817
0.191125, 0.383864, 0.0892367
0.1958, 0.383543, 0.0933409
0.200541, 0.383364, 0.0956264
0.205278, 0.383185, 0.0979166
0.210009, 0.383005, 0.100222
0.214774, 0.382892, 0.101664
0.219545, 0.382797, 0.102883
0.224324, 0.382717, 0.103906
0.229141, 0.382706, 0.104048
0.233962, 0.3827, 0.104125
0.238789, 0.382706, 0.104047
0.24364, 0.382748, 0.103506
0.24852, 0.382834, 0.102413
0.253438, 0.382973, 0.100636
0.258311, 0.38304, 0.099771
0.263211, 0.383145, 0.0984325
0.26813, 0.383273, 0.0967908
0.273057, 0.383407, 0.0950737
0.278012, 0.383575, 0.0929241
0.282984, 0.383762, 0.0905404
0.28791, 0.38388, 0.0890274
0.292817, 0.383969, 0.0878873
0.297703, 0.384029, 0.087121
0.302546, 0.384031, 0.0870953
0.307459, 0.384121, 0.0859399
0.312397, 0.38424, 0.0844212
0.317365, 0.384392, 0.0824804
0.322338, 0.384544, 0.0805335
0.327315, 0.384696, 0.0785923
0.332411, 0.384982, 0.0749345
0.337764, 0.385553, 0.0676222
-0.203215, 0.395003, 0.0302525
-0.19774, 0.393853, 0.0447283
-0.192517, 0.393156, 0.053493
-0.187397, 0.39264, 0.0599813
-0.18233, 0.392211, 0.0653787
-0.177264, 0.391762, 0.0710306
-0.172189, 0.391266, 0.0772758
-0.167132, 0.390781, 0.0833764
-0.162134, 0.390412, 0.0880179
-0.157177, 0.39012, 0.0916877
-0.152247, 0.389882, 0.0946841
-0.147323, 0.389641, 0.0977168
-0.14243, 0.389469, 0.0998859
-0.137548, 0.389317, 0.101792
-0.13268, 0.389194, 0.103344
-0.127825, 0.389103, 0.104492
-0.122976, 0.389023, 0.105495
-0.118143, 0.388988, 0.105936
-0.113315, 0.388967, 0.106201
-0.108493, 0.388967, 0.106192
-0.10368, 0.388999, 0.10579
-0.0988651, 0.38903, 0.105402
-0.0940841, 0.389203, 0.103234
-0.0893048, 0.389401, 0.100742
-0.084547, 0.389721, 0.0967097
-0.0798084, 0.390174, 0.0910082
-0.0750594, 0.390632, 0.0852509
-0.0704708, 0.392045, 0.0674772
-0.0656709, 0.392404, 0.0629549
-0.0607993, 0.392357, 0.0635409
-0.0559286, 0.39231, 0.0641322
-0.0510687, 0.392337, 0.0638003
-0.0462081, 0.392364, 0.0634637
-0.0413469, 0.39239, 0.0631318
-0.0364823, 0.392388, 0.0631537
-0.031616, 0.392363, 0.0634689
-0.0267503, 0.392337, 0.0637994
-0.0218852, 0.392312, 0.064115
-0.0170213, 0.392301, 0.0642548
-0.0121584, 0.392312, 0.0641117
-0.00729525, 0.392324, 0.063962
-0.00243178, 0.392335, 0.063818
0.00243185, 0.392347, 0.0636783
0.00729588, 0.392358, 0.0635333
0.0121607, 0.392385, 0.0631943
0.0170265, 0.39242, 0.0627499
0.0218936, 0.392463, 0.0622106
0.0267638, 0.392535, 0.061307
0.0316357, 0.392607, 0.0603991
0.0365094, 0.392679, 0.059495
0.0413879, 0.39278, 0.0582275
0.0462719, 0.392906, 0.0566454
0.051159, 0.393031, 0.0550685
0.0560491, 0.393156, 0.0534964
0.0609478, 0.393316, 0.0514798
0.0658675, 0.393579, 0.048173
0.0708013, 0.393883, 0.0443425
0.0757429, 0.394189, 0.0404973
0.0807027, 0.394547, 0.0359988
0.0856729, 0.394911, 0.0314155
0.0906939, 0.395458, 0.0245347
0.0957949, 0.39628, 0.0141912
0.167113, 0.402402, -0.0628347
0.171849, 0.40181, -0.0553865
0.176589, 0.401264, -0.048511
0.181455, 0.401023, -0.0454869
0.18637, 0.400903, -0.043972
0.186467, 0.390693, 0.0844865
0.191095, 0.390254, 0.0900097
0.195749, 0.389886, 0.0946317
0.200482, 0.389693, 0.0970659
0.205218, 0.389512, 0.0993462
0.209944, 0.389322, 0.101731
0.214693, 0.38918, 0.103512
0.219462, 0.389084, 0.10473
0.224282, 0.389078, 0.104807
0.229027, 0.388944, 0.106483
0.233845, 0.388938, 0.106569
0.238662, 0.38893, 0.106661
0.243524, 0.388995, 0.105851
0.248382, 0.389051, 0.105135
0.253239, 0.389104, 0.104474
0.258106, 0.389169, 0.103658
0.263003, 0.389276, 0.10231
0.267903, 0.389384, 0.100946
0.272806, 0.389493, 0.0995784
0.27775, 0.389655, 0.097548
0.282696, 0.389814, 0.095542
0.287646, 0.389974, 0.0935311
0.292571, 0.390094, 0.0920134
0.297486, 0.390199, 0.0906987
0.302394, 0.39029, 0.0895486
0.307304, 0.390381, 0.0884037
0.312217, 0.390473, 0.0872536
0.317131, 0.390564, 0.0861077
0.322049, 0.390656, 0.0849471
0.327036, 0.390828, 0.0827866
0.332084, 0.391067, 0.0797758
0.337161, 0.391333, 0.0764313
0.342494, 0.391884, 0.0694928
0.348035, 0.392654, 0.0598059
-0.208083, 0.401477, 0.0309329
-0.202656, 0.400428, 0.0439181
-0.19744, 0.399755, 0.052248
-0.192293, 0.39919, 0.0592384
-0.187206, 0.398725, 0.0649991
-0.18212, 0.398236, 0.071054
-0.177027, 0.397703, 0.077642
-0.17198, 0.39725, 0.0832591
-0.166979, 0.396877, 0.0878744
-0.162029, 0.396607, 0.0912104
-0.157099, 0.396373, 0.0941133
-0.152174, 0.396135, 0.0970602
-0.14728, 0.395965, 0.0991549
-0.142394, 0.395806, 0.101125
-0.137524, 0.395683, 0.102643
-0.132658, 0.395561, 0.104155
-0.127809, 0.395484, 0.105114
-0.122962, 0.395407, 0.106067
-0.118131, 0.395379, 0.106417
-0.113305, 0.39536, 0.106642
-0.108486, 0.395371, 0.106514
-0.103674, 0.395407, 0.106062
-0.0988602, 0.395441, 0.105644
-0.0940748, 0.395597, 0.103716
-0.0892951, 0.395794, 0.101274
-0.0845319, 0.396092, 0.0975819
-0.0797944, 0.396554, 0.0918703
-0.0750472, 0.397024, 0.0860538
-0.0703908, 0.398072, 0.0730762
-0.0655887, 0.398391, 0.0691328
-0.0607248, 0.398354, 0.0695891
-0.0558618, 0.398318, 0.0700302
-0.0510042, 0.398319, 0.0700274
-0.0461439, 0.398294, 0.0703292
-0.0412868, 0.398296, 0.0703063
-0.0364295, 0.398297, 0.0702982
-0.0315723, 0.398298, 0.0702853
-0.0267152, 0.398299, 0.0702667
-0.021855, 0.398246, 0.0709305
-0.0169976, 0.398229, 0.0711403
-0.0121414, 0.398237, 0.0710363
-0.00728494, 0.398245, 0.0709376
-0.00242833, 0.398254, 0.0708327
0.00242838, 0.398262, 0.0707326
0.0072854, 0.39827, 0.0706286
0.0121426, 0.398278, 0.0705285
0.0169997, 0.398278, 0.0705323
0.0218582, 0.398304, 0.0702028
0.0267193, 0.39836, 0.069519
0.0315817, 0.398415, 0.06883
0.0364471, 0.398488, 0.0679264
0.0413143, 0.398562, 0.0670171
0.0461833, 0.398635, 0.066113
0.0510557, 0.398721, 0.0650539
0.055936, 0.398848, 0.0634818
0.060827, 0.399025, 0.0612864
0.0657284, 0.39924, 0.0586276
0.0706353, 0.399455, 0.055964
0.0755475, 0.399671, 0.0532947
0.080465, 0.399887, 0.0506201
0.0853991, 0.400156, 0.0472927
0.0903598, 0.400513, 0.0428638
0.0953588, 0.400996, 0.0368862
0.100371, 0.401485, 0.0308328
0.105465, 0.40224, 0.0214963
0.110607, 0.403102, 0.0108294
0.162207, 0.409261, -0.0654054
0.166937, 0.408622, -0.0574946
0.171721, 0.408149, -0.0516405
0.17646, 0.407598, -0.0448256
0.180951, 0.406521, -0.0314918
0.185706, 0.406078, -0.0260038
0.18644, 0.397094, 0.0851884
0.191044, 0.396597, 0.0913396
0.195713, 0.396259, 0.0955229
0.200424, 0.396019, 0.098495
0.205158, 0.395834, 0.100775
0.20988, 0.395635, 0.103238
0.214612, 0.395464, 0.105358
0.219378, 0.395362, 0.106625
0.22416, 0.395293, 0.107479
0.228909, 0.395169, 0.109015
0.233671, 0.395073, 0.110196
0.238474, 0.395047, 0.110516
0.243292, 0.395048, 0.110503
0.248143, 0.395101, 0.109847
0.252986, 0.39514, 0.109374
0.257843, 0.395199, 0.108638
0.262734, 0.395306, 0.10731
0.267635, 0.395425, 0.105847
0.27254, 0.395544, 0.104369
0.277457, 0.395678, 0.102716
0.282397, 0.395838, 0.10073
0.287339, 0.395997, 0.0987597
0.292297, 0.396171, 0.0966144
0.297261, 0.396347, 0.0944247
0.302209, 0.396498, 0.0925579
0.307144, 0.396627, 0.0909653
0.312071, 0.396742, 0.0895462
0.317007, 0.396864, 0.0880318
0.321947, 0.396987, 0.086513
0.326889, 0.397109, 0.0849991
0.331835, 0.397233, 0.0834703
0.33688, 0.39747, 0.0805345
0.341964, 0.397746, 0.077116
0.347221, 0.398211, 0.0713568
0.352746, 0.398968, 0.0619936
-0.213202, 0.408433, 0.0257211
-0.207673, 0.407202, 0.0407109
-0.202427, 0.40648, 0.0495124
-0.197276, 0.405919, 0.0563483
-0.192116, 0.405307, 0.063796
-0.186975, 0.404709, 0.0710807
-0.181882, 0.404182, 0.0775037
-0.176822, 0.403702, 0.083344
-0.171812, 0.403315, 0.0880542
-0.166857, 0.403035, 0.0914645
-0.161927, 0.402804, 0.0942817
-0.157009, 0.402586, 0.0969348
-0.152086, 0.402345, 0.0998721
-0.147169, 0.402102, 0.102833
-0.142293, 0.401956, 0.104605
-0.137431, 0.401846, 0.105943
-0.132578, 0.401751, 0.107106
-0.127741, 0.401702, 0.107706
-0.12291, 0.401666, 0.108141
-0.118098, 0.401694, 0.107804
-0.113288, 0.401731, 0.107352
-0.108478, 0.401771, 0.106855
-0.103668, 0.401813, 0.106353
-0.0988568, 0.401857, 0.105815
-0.0940704, 0.40201, 0.103947
-0.0892816, 0.402169, 0.102014
-0.0845169, 0.402461, 0.0984511
-0.0797833, 0.402946, 0.0925508
-0.0750422, 0.403453, 0.0863767
-0.0703149, 0.404108, 0.078393
-0.0655302, 0.404507, 0.0735335
-0.0606665, 0.404443, 0.0743189
-0.0558081, 0.404406, 0.0747695
-0.0509553, 0.404407, 0.0747576
-0.0461026, 0.404408, 0.0747399
-0.0412498, 0.404409, 0.0747271
-0.0363963, 0.404404, 0.0747991
-0.0315383, 0.404338, 0.0756025
-0.0266819, 0.40427, 0.0764217
-0.0218271, 0.404204, 0.0772247
-0.0169763, 0.404197, 0.0773153
-0.0121262, 0.404206, 0.0772114
-0.00727581, 0.404214, 0.0771127
-0.00242524, 0.404216, 0.0770879
0.00242522, 0.404211, 0.077147
0.00727567, 0.404205, 0.0772119
0.012126, 0.404201, 0.077271
0.0169762, 0.404195, 0.0773354
0.0218287, 0.404235, 0.0768557
0.0266832, 0.404291, 0.0761719
0.031539, 0.404347, 0.0754929
0.0363962, 0.404403, 0.0748091
0.0412548, 0.404459, 0.0741291
0.0461147, 0.404515, 0.0734444
0.050975, 0.404563, 0.072854
0.0558354, 0.404604, 0.0723581
0.0607083, 0.404721, 0.07093
0.0655923, 0.404891, 0.0688591
0.0704884, 0.405106, 0.0662451
0.0753895, 0.40532, 0.0636358
0.0802959, 0.405535, 0.0610209
0.0852075, 0.40575, 0.0584021
0.0901253, 0.40597, 0.055727
0.0950763, 0.406309, 0.0515928
0.100043, 0.406681, 0.0470648
0.105055, 0.407189, 0.0408773
0.110078, 0.407698, 0.0346751
0.115113, 0.408202, 0.0285378
0.120218, 0.408904, 0.0199852
0.125324, 0.409554, 0.0120745
0.130633, 0.410796, -0.00305414
0.157269, 0.416054, -0.0670958
0.162006, 0.415401, -0.0591402
0.166819, 0.414973, -0.0539289
0.171493, 0.414233, -0.0449181
0.175956, 0.413043, -0.0304151
0.180704, 0.412567, -0.0246229
0.185554, 0.412342, -0.0218844
0.186414, 0.403493, 0.0858903
0.190991, 0.402936, 0.0926771
0.195677, 0.402628, 0.0964212
0.20037, 0.40235, 0.0998116
0.205095, 0.402148, 0.10227
0.209829, 0.401972, 0.104414
0.214577, 0.401829, 0.106155
0.21936, 0.401758, 0.107014
0.22413, 0.401667, 0.108127
0.228858, 0.401505, 0.1101
0.233613, 0.401397, 0.111411
0.238366, 0.40129, 0.112717
0.243133, 0.401209, 0.113708
0.247971, 0.401247, 0.113242
0.252839, 0.401332, 0.112202
0.257703, 0.401407, 0.111297
0.262528, 0.401419, 0.111142
0.267415, 0.401524, 0.109869
0.272313, 0.401642, 0.10843
0.277215, 0.401761, 0.106986
0.28212, 0.40188, 0.105528
0.287034, 0.402009, 0.103965
0.291984, 0.402182, 0.10186
0.296961, 0.402386, 0.099371
0.301955, 0.402606, 0.0966887
0.306954, 0.402826, 0.0940118
0.311931, 0.403011, 0.0917563
0.316895, 0.403175, 0.0897651
0.321839, 0.403308, 0.0881472
0.326784, 0.403438, 0.0865636
0.331728, 0.403562, 0.0850449
0.336675, 0.403687, 0.0835209
0.341674, 0.40387, 0.081296
0.346767, 0.404158, 0.0777931
0.351943, 0.404532, 0.0732322
0.35759, 0.40543, 0.0622954
-0.212756, 0.414099, 0.0361443
-0.207509, 0.413391, 0.044631
-0.202298, 0.41272, 0.0526752
-0.197046, 0.411931, 0.062129
-0.191861, 0.411247, 0.070323
-0.186741, 0.41067, 0.0772486
-0.181687, 0.41021, 0.0827641
-0.176657, 0.40978, 0.0879173
-0.171683, 0.409459, 0.0917611
-0.166739, 0.409195, 0.0949221
-0.1618, 0.408926, 0.0981479
-0.156872, 0.408672, 0.101199
-0.15197, 0.408468, 0.103638
-0.147073, 0.408267, 0.106051
-0.142222, 0.408186, 0.107026
-0.137372, 0.4081, 0.108055
-0.132524, 0.408014, 0.109078
-0.127693, 0.407976, 0.109539
-0.122866, 0.407948, 0.109875
-0.118055, 0.407974, 0.109567
-0.113238, 0.40798, 0.109494
-0.108433, 0.408031, 0.108878
-0.103643, 0.408144, 0.107528
-0.0988515, 0.408265, 0.106075
-0.0940627, 0.408409, 0.104346
-0.0892707, 0.408554, 0.102613
-0.0844893, 0.408767, 0.100057
-0.0797514, 0.409229, 0.0945163
-0.0750026, 0.409692, 0.0889697
-0.0702409, 0.410143, 0.0835676
-0.065479, 0.410658, 0.0773835
-0.0606149, 0.410565, 0.0785074
-0.0557581, 0.410509, 0.0791783
-0.0509097, 0.41051, 0.0791659
-0.0460583, 0.410485, 0.0794673
-0.0412033, 0.410418, 0.0802712
-0.0363498, 0.410349, 0.08109
-0.031498, 0.410282, 0.0818944
-0.0266479, 0.410215, 0.0827026
-0.0217998, 0.410159, 0.0833769
-0.0169548, 0.410144, 0.0835471
-0.0121103, 0.410135, 0.0836625
-0.00726596, 0.410125, 0.0837822
-0.0024219, 0.410118, 0.0838675
0.00242188, 0.410113, 0.0839272
0.00726565, 0.410107, 0.0839915
0.0121093, 0.410102, 0.0840511
0.0169528, 0.410097, 0.084115
0.0217992, 0.410147, 0.0835166
0.0266461, 0.410188, 0.0830216
0.0314939, 0.410229, 0.0825319
0.0363429, 0.410271, 0.0820265
0.0411927, 0.410312, 0.0815368
0.0460436, 0.410353, 0.0810413
0.0508955, 0.410395, 0.0805407
0.0557483, 0.410436, 0.0800452
0.0606138, 0.410557, 0.0785971
0.065487, 0.410709, 0.0767756
0.0703645, 0.410864, 0.0749187
0.0752469, 0.411026, 0.0729775
0.0801334, 0.411189, 0.0710206
0.0850236, 0.411352, 0.0690684
0.0899279, 0.411562, 0.0665541
0.094868, 0.411906, 0.0624299
0.0998163, 0.41225, 0.058311
0.104773, 0.412595, 0.0541759
0.109738, 0.41294, 0.0500369
0.114721, 0.41332, 0.0454736
0.119731, 0.413764, 0.0401587
0.124735, 0.414152, 0.0355062
0.129748, 0.414541, 0.0308485
0.134795, 0.415005, 0.0252795
0.139925, 0.415683, 0.0171561
0.145026, 0.416233, 0.0105615
0.150093, 0.416652, 0.0055356
0.157044, 0.422107, -0.0598459
0.161812, 0.421541, -0.0530663
0.166528, 0.420877, -0.0451069
0.170962, 0.419558, -0.029295
0.175785, 0.419242, -0.0255103
0.180673, 0.419095, -0.0237427
0.185559, 0.41895, -0.0220103
0.18637, 0.409852, 0.0870476
0.190943, 0.409279, 0.0939236
0.195641, 0.408995, 0.0973186
0.200347, 0.408739, 0.100389
0.205073, 0.408537, 0.102808
0.209822, 0.408389, 0.104584
0.214568, 0.408242, 0.106354
0.219343, 0.408154, 0.107402
0.224095, 0.40803, 0.108893
0.228822, 0.407864, 0.110876
0.233566, 0.407737, 0.112406
0.238352, 0.407686, 0.113015
0.243137, 0.407635, 0.113628
0.24792, 0.407584, 0.114236
0.252755, 0.407617, 0.113843
0.257623, 0.407703, 0.112808
0.26245, 0.40772, 0.112605
0.267274, 0.407733, 0.112454
0.272098, 0.407746, 0.1123
0.277005, 0.407879, 0.110697
0.281934, 0.408042, 0.108752
0.286867, 0.408204, 0.10681
0.291789, 0.408344, 0.105132
0.296737, 0.408516, 0.103071
0.301732, 0.408747, 0.100299
0.306728, 0.40897, 0.0976224
0.311728, 0.409193, 0.0949497
0.31673, 0.409411, 0.0923324
0.321703, 0.409587, 0.0902262
0.326659, 0.409735, 0.0884542
0.331607, 0.40987, 0.0868363
0.33656, 0.410005, 0.0852127
0.341514, 0.41014, 0.0835943
0.346467, 0.410269, 0.0820508
0.351569, 0.410568, 0.0784636
0.356868, 0.411086, 0.072258
0.362814, 0.412325, 0.0574012
-0.217746, 0.420812, 0.0338721
-0.212538, 0.42019, 0.0412173
-0.207369, 0.419618, 0.0479708
-0.20208, 0.418768, 0.0579958
-0.196801, 0.417899, 0.0682549
-0.191671, 0.417309, 0.0752139
-0.186561, 0.416734, 0.0820093
-0.181512, 0.416268, 0.0875049
-0.17653, 0.415933, 0.0914531
-0.171555, 0.415597, 0.0954156
-0.166602, 0.415298, 0.0989447
-0.161674, 0.415044, 0.101951
-0.156768, 0.414833, 0.104435
-0.151877, 0.414649, 0.106614
-0.147012, 0.414524, 0.108082
-0.142168, 0.414456, 0.108887
-0.137326, 0.414386, 0.109716
-0.132494, 0.414345, 0.110202
-0.127664, 0.414305, 0.110672
-0.122834, 0.414264, 0.111147
-0.118022, 0.414279, 0.11097
-0.113214, 0.414314, 0.110558
-0.108407, 0.414354, 0.110091
-0.103608, 0.414431, 0.10918
-0.0988067, 0.414506, 0.108294
-0.0940166, 0.414637, 0.106745
-0.0892342, 0.414818, 0.104614
-0.0844522, 0.415022, 0.102208
-0.0796963, 0.415387, 0.0979028
-0.0749503, 0.415853, 0.0923977
-0.0701724, 0.416195, 0.0883613
-0.0654283, 0.416803, 0.0811911
-0.0605678, 0.416706, 0.082335
-0.0557097, 0.416611, 0.0834541
-0.0508555, 0.41653, 0.0844083
-0.0460059, 0.416474, 0.0850682
-0.0411577, 0.416419, 0.0857234
-0.0363107, 0.416363, 0.0863829
-0.031465, 0.416307, 0.0870371
-0.0266208, 0.416252, 0.0876861
-0.0217778, 0.416197, 0.0883403
-0.0169374, 0.416177, 0.0885801
-0.0120979, 0.416167, 0.088696
-0.00725852, 0.416157, 0.0888157
-0.00241941, 0.416147, 0.0889306
0.00241936, 0.416138, 0.0890403
0.00725787, 0.41612, 0.0892539
0.0120957, 0.416093, 0.0895624
0.016933, 0.416069, 0.0898557
0.0217718, 0.416082, 0.0896955
0.026611, 0.416099, 0.0894995
0.0314512, 0.416124, 0.0891991
0.0362924, 0.416154, 0.0888534
0.0411343, 0.416182, 0.0885134
0.0459768, 0.416211, 0.0881767
0.05082, 0.41624, 0.0878358
0.0556639, 0.416269, 0.0874896
0.0605199, 0.416377, 0.0862207
0.0653855, 0.41653, 0.0844092
0.0702549, 0.416684, 0.082592
0.0751277, 0.416838, 0.0807805
0.080005, 0.416996, 0.0789132
0.0848875, 0.417161, 0.076962
0.0897761, 0.417337, 0.0748854
0.0946986, 0.417645, 0.0712495
0.0996112, 0.417881, 0.0684652
0.104525, 0.418101, 0.0658655
0.109479, 0.418452, 0.0617261
0.114441, 0.418803, 0.0575819
0.119398, 0.41911, 0.0539608
0.12435, 0.419375, 0.0508323
0.12931, 0.419648, 0.0476098
0.134282, 0.419936, 0.0442128
0.139298, 0.420338, 0.0394659
0.144319, 0.420725, 0.034903
0.149328, 0.421056, 0.031003
0.154345, 0.421387, 0.0270972
0.159365, 0.421703, 0.0233569
0.164392, 0.422022, 0.0196009
0.169404, 0.422281, 0.0165377
0.174375, 0.422428, 0.0148034
0.179349, 0.422575, 0.0130744
0.184315, 0.422696, 0.0116482
0.186355, 0.416275, 0.0874262
0.190934, 0.415705, 0.0941415
0.195647, 0.415449, 0.0971684
0.200352, 0.415186, 0.100269
0.205068, 0.414961, 0.102926
0.209815, 0.414806, 0.104752
0.21456, 0.414656, 0.106532
0.219325, 0.414549, 0.107789
0.22406, 0.41439, 0.109667
0.228807, 0.414261, 0.111182
0.233581, 0.414184, 0.112094
0.238362, 0.414123, 0.112813
0.243142, 0.414063, 0.113525
0.247924, 0.414009, 0.114163
0.252706, 0.413957, 0.114776
0.257537, 0.413985, 0.114448
0.262371, 0.414016, 0.114074
0.267196, 0.414033, 0.113875
0.272049, 0.414092, 0.113183
0.276899, 0.414144, 0.112565
0.281823, 0.414303, 0.110689
0.286755, 0.414469, 0.108737
0.29168, 0.41462, 0.10695
0.296582, 0.414732, 0.105626
0.301489, 0.414848, 0.104256
0.306486, 0.415084, 0.10148
0.31149, 0.415319, 0.0986977
0.316499, 0.415556, 0.095911
0.321508, 0.415785, 0.0931993
0.326501, 0.415987, 0.0908198
0.331477, 0.416161, 0.0887642
0.336428, 0.416299, 0.0871406
0.341391, 0.416448, 0.0853734
0.346367, 0.41661, 0.0834713
0.351372, 0.4168, 0.0812268
0.356592, 0.417236, 0.0760751
0.362073, 0.417964, 0.0674911
-0.222751, 0.427552, 0.031374
-0.217511, 0.426875, 0.0392413
-0.212354, 0.426335, 0.0455112
-0.207129, 0.42563, 0.0537076
-0.201815, 0.424702, 0.0644884
-0.196617, 0.42398, 0.072875
-0.191487, 0.423372, 0.0799432
-0.186392, 0.422811, 0.0864687
-0.181361, 0.42237, 0.0915961
-0.176381, 0.422026, 0.095583
-0.171488, 0.421876, 0.0973349
-0.166525, 0.421541, 0.101223
-0.161601, 0.421288, 0.104169
-0.156717, 0.421127, 0.106035
-0.15184, 0.420974, 0.107816
-0.146976, 0.42085, 0.109254
-0.142143, 0.420806, 0.109759
-0.137303, 0.42074, 0.110529
-0.132468, 0.420687, 0.111154
-0.127651, 0.420687, 0.111147
-0.122822, 0.420646, 0.111622
-0.118003, 0.420637, 0.111733
-0.11319, 0.420651, 0.11157
-0.108382, 0.420683, 0.111193
-0.103585, 0.420764, 0.110253
-0.0987854, 0.420842, 0.109347
-0.0939876, 0.420936, 0.108257
-0.0891876, 0.421029, 0.107171
-0.0844203, 0.421297, 0.104058
-0.0796478, 0.42157, 0.100889
-0.0748994, 0.422013, 0.0957336
-0.0701134, 0.422292, 0.092495
-0.0653805, 0.422955, 0.0847869
-0.0605212, 0.422841, 0.0861206
-0.0556668, 0.422744, 0.0872393
-0.050816, 0.42266, 0.0882235
-0.0459675, 0.422578, 0.0891719
-0.0411208, 0.422496, 0.0901256
-0.036276, 0.422414, 0.0910745
-0.0314333, 0.422336, 0.0919876
-0.026594, 0.422279, 0.0926466
-0.0217558, 0.422223, 0.0933008
-0.0169201, 0.422197, 0.0936003
-0.0120855, 0.422187, 0.0937161
-0.00725095, 0.422168, 0.093936
-0.00241679, 0.422142, 0.0942392
0.00241665, 0.422116, 0.0945382
0.00724962, 0.422091, 0.0948329
0.012082, 0.422064, 0.0951409
0.0169138, 0.422039, 0.0954337
0.0217471, 0.422054, 0.0952635
0.0265808, 0.42207, 0.0950775
0.0314148, 0.422086, 0.0948873
0.0362493, 0.422103, 0.0946908
0.0410844, 0.422122, 0.0944695
0.045921, 0.422151, 0.0941334
0.0507584, 0.422181, 0.0937924
0.0555963, 0.422209, 0.0934558
0.0604446, 0.422306, 0.0923371
0.0652998, 0.422433, 0.0908542
0.0701581, 0.422561, 0.0893669
0.0750192, 0.422689, 0.0878835
0.0798834, 0.422817, 0.0863948
0.0847528, 0.422957, 0.0847721
0.0896314, 0.423124, 0.0828247
0.0945458, 0.423436, 0.0791993
0.0994677, 0.423749, 0.0755687
0.104389, 0.424031, 0.0722919
0.109302, 0.424252, 0.0697169
0.114219, 0.424474, 0.0671363
0.119138, 0.424681, 0.0647311
0.124052, 0.424857, 0.0626884
0.128998, 0.425125, 0.0595751
0.13395, 0.425393, 0.0564561
0.138911, 0.42567, 0.0532436
0.14388, 0.425948, 0.0500054
0.148901, 0.426362, 0.0451989
0.1539, 0.426685, 0.0414433
0.158905, 0.427006, 0.0377121
0.163918, 0.427328, 0.0339766
0.168925, 0.427617, 0.0306139
0.173919, 0.427858, 0.0278144
0.17895, 0.428172, 0.0241632
0.183877, 0.428229, 0.0235043
0.186377, 0.422776, 0.0868669
0.19095, 0.422184, 0.0937514
0.195656, 0.421907, 0.0969677
0.200355, 0.42163, 0.100187
0.205063, 0.421384, 0.103053
0.20981, 0.421227, 0.104868
0.214553, 0.421071, 0.106688
0.219298, 0.420924, 0.108392
0.224061, 0.420817, 0.109633
0.228822, 0.420711, 0.11087
0.233601, 0.420643, 0.111662
0.238383, 0.420582, 0.11237
0.243163, 0.42052, 0.113093
0.247942, 0.420458, 0.113811
0.252719, 0.420396, 0.114532
0.257495, 0.420334, 0.115248
0.262309, 0.420336, 0.115223
0.26716, 0.420395, 0.114537
0.272011, 0.420454, 0.113854
0.276861, 0.420508, 0.113227
0.281712, 0.420561, 0.112614
0.286642, 0.420729, 0.110662
0.291572, 0.420891, 0.108776
0.296472, 0.421006, 0.107442
0.301374, 0.42112, 0.106112
0.30628, 0.421235, 0.104777
0.311238, 0.421417, 0.102662
0.316242, 0.421656, 0.0998845
0.321253, 0.421896, 0.0971031
0.326298, 0.422173, 0.0938797
0.331346, 0.422446, 0.0907102
0.336347, 0.422652, 0.0883117
0.341318, 0.422814, 0.0864248
0.346293, 0.422978, 0.0845237
0.351297, 0.423171, 0.0822787
0.356369, 0.423441, 0.0791445
0.361619, 0.423911, 0.0736814
0.367288, 0.424854, 0.0627184
-0.227821, 0.434411, 0.027576
-0.222506, 0.433601, 0.0368505
-0.217336, 0.433043, 0.0432348
-0.212083, 0.432293, 0.0518236
-0.20682, 0.431483, 0.0610943
-0.201605, 0.430739, 0.0696144
-0.196456, 0.430101, 0.0769153
-0.191306, 0.429429, 0.0845995
-0.186251, 0.428943, 0.090169
-0.181208, 0.428457, 0.0957341
-0.176307, 0.428289, 0.0976501
-0.171419, 0.428144, 0.0993123
-0.166469, 0.427834, 0.102861
-0.161559, 0.427608, 0.105449
-0.156677, 0.427448, 0.107275
-0.151806, 0.427305, 0.108917
-0.146941, 0.427173, 0.110424
-0.142109, 0.427129, 0.110929
-0.137277, 0.427084, 0.11144
-0.132442, 0.427026, 0.112105
-0.127628, 0.427031, 0.112048
-0.122811, 0.427027, 0.112094
-0.117989, 0.427006, 0.112335
-0.113175, 0.427015, 0.112232
-0.108364, 0.427034, 0.112015
-0.103565, 0.427106, 0.111194
-0.0987638, 0.427174, 0.110418
-0.0939685, 0.427276, 0.109248
-0.0891702, 0.427374, 0.108122
-0.0843795, 0.427523, 0.106424
-0.0796122, 0.427815, 0.103076
-0.0748456, 0.428149, 0.099256
-0.0700591, 0.428407, 0.0962963
-0.0653259, 0.429055, 0.0888891
-0.060477, 0.428983, 0.089704
-0.055624, 0.428869, 0.0910125
-0.0507766, 0.428781, 0.0920262
-0.0459319, 0.428698, 0.0929747
-0.0410889, 0.428614, 0.0939283
-0.0362479, 0.428531, 0.0948768
-0.0314089, 0.42845, 0.0958099
-0.0265725, 0.42838, 0.0966082
-0.0217376, 0.42831, 0.0974121
-0.0169047, 0.428252, 0.0980802
-0.0120738, 0.428218, 0.098465
-0.00724373, 0.428187, 0.0988235
-0.00241436, 0.428155, 0.0991879
0.00241418, 0.428123, 0.0995564
0.00724211, 0.428091, 0.0999198
0.0120693, 0.42806, 0.100278
0.0168958, 0.428028, 0.100641
0.0217233, 0.428029, 0.10063
0.0265508, 0.42803, 0.100613
0.0313792, 0.428045, 0.100442
0.0362082, 0.428061, 0.100256
0.0410375, 0.428078, 0.100065
0.0458673, 0.428095, 0.0998778
0.0506974, 0.428111, 0.0996866
0.055529, 0.428136, 0.0994
0.0603704, 0.428227, 0.0983605
0.0652195, 0.428356, 0.0968876
0.0700719, 0.428486, 0.0954003
0.0749276, 0.428618, 0.0938869
0.0797861, 0.42875, 0.0923791
0.0846476, 0.428881, 0.0908761
0.0895121, 0.429013, 0.0893669
0.0943995, 0.429236, 0.0868177
0.0993084, 0.429529, 0.083456
0.104228, 0.429842, 0.0798807
0.109157, 0.430159, 0.0762501
0.114071, 0.430395, 0.0735402
0.118984, 0.43061, 0.0710845
0.123898, 0.430808, 0.0688229
0.12881, 0.430987, 0.0667653
0.13372, 0.431145, 0.0649619
0.138633, 0.431303, 0.0631533
0.14355, 0.431461, 0.0613494
0.148537, 0.431812, 0.0573297
0.153564, 0.432255, 0.0522594
0.158576, 0.432629, 0.0479708
0.16358, 0.432959, 0.0441957
0.168566, 0.433222, 0.0411816
0.173518, 0.433387, 0.0392976
0.178482, 0.433574, 0.0371594
0.183413, 0.433671, 0.0360518
0.186398, 0.42928, 0.086307
0.19097, 0.428674, 0.0932403
0.195662, 0.428362, 0.0968142
0.200358, 0.428073, 0.100123
0.205058, 0.427807, 0.103167
0.209805, 0.427649, 0.104982
0.21456, 0.427513, 0.106533
0.219313, 0.427379, 0.108068
0.224076, 0.42727, 0.109319
0.228838, 0.427165, 0.110516
0.233622, 0.427103, 0.111229
0.238404, 0.42704, 0.111947
0.243185, 0.426978, 0.112659
0.247964, 0.426915, 0.113376
0.252741, 0.426851, 0.114109
0.257514, 0.426784, 0.114884
0.262286, 0.426715, 0.115665
0.267124, 0.426756, 0.115197
0.271975, 0.426816, 0.114514
0.276824, 0.426871, 0.113887
0.281673, 0.426923, 0.113284
0.286528, 0.426983, 0.112596
0.29146, 0.427153, 0.11065
0.296361, 0.427274, 0.109276
0.301262, 0.427391, 0.107936
0.306165, 0.427506, 0.106611
0.311082, 0.427637, 0.105113
0.31605, 0.427834, 0.102862
0.321095, 0.428127, 0.0995049
0.326148, 0.428422, 0.0961313
0.331209, 0.428719, 0.0927339
0.336254, 0.428986, 0.0896792
0.341246, 0.429179, 0.0874648
0.346219, 0.429344, 0.0855732
0.351221, 0.429539, 0.0833392
0.356257, 0.42977, 0.0807018
0.361381, 0.4301, 0.0769176
0.366651, 0.430593, 0.0712805
0.372502, 0.431745, 0.0580897
-0.23305, 0.441569, 0.0205197
-0.227522, 0.440365, 0.0341063
-0.222351, 0.439815, 0.0403051
-0.217041, 0.43896, 0.0499425
-0.211755, 0.438115, 0.0594764
-0.206603, 0.437512, 0.066268
-0.201433, 0.436843, 0.0738215
-0.196285, 0.436189, 0.081192
-0.191168, 0.435573, 0.0881391
-0.186118, 0.43508, 0.093698
-0.181138, 0.43473, 0.0976396
-0.176252, 0.434593, 0.0991879
-0.171349, 0.434406, 0.101298
-0.166421, 0.434143, 0.104269
-0.161517, 0.433927, 0.106697
-0.156642, 0.433777, 0.108393
-0.151772, 0.433633, 0.110015
-0.146914, 0.433515, 0.111342
-0.142083, 0.433474, 0.111808
-0.137255, 0.433436, 0.112239
-0.132427, 0.433398, 0.112666
-0.127608, 0.433386, 0.112797
-0.122789, 0.433374, 0.112934
-0.117974, 0.433375, 0.112926
-0.113161, 0.433383, 0.112833
-0.108348, 0.433393, 0.112724
-0.103546, 0.433451, 0.112073
-0.0987372, 0.43348, 0.111736
-0.0939554, 0.433641, 0.109929
-0.089154, 0.433722, 0.109012
-0.0843602, 0.433852, 0.107543
-0.0795759, 0.43405, 0.105312
-0.0748006, 0.434326, 0.102199
-0.0700119, 0.434557, 0.0995984
-0.0652739, 0.43516, 0.0927992
-0.0604354, 0.435134, 0.0930862
-0.0555853, 0.435015, 0.0944343
-0.0507435, 0.434944, 0.0952287
-0.0459034, 0.434874, 0.0960178
-0.0410648, 0.434804, 0.0968122
-0.0362278, 0.434734, 0.0976009
-0.0313922, 0.434663, 0.0984049
-0.026558, 0.434585, 0.0992827
-0.0217254, 0.434507, 0.100156
-0.016895, 0.434443, 0.100884
-0.0120667, 0.434401, 0.101358
-0.00723929, 0.434359, 0.101827
-0.00241286, 0.434323, 0.102231
0.00241268, 0.434292, 0.102589
0.00723762, 0.434259, 0.102953
0.0120618, 0.434227, 0.103321
0.0168854, 0.434195, 0.103673
0.0217099, 0.434197, 0.103652
0.0265344, 0.434199, 0.103636
0.0313589, 0.434201, 0.103614
0.0361835, 0.434202, 0.103598
0.0410081, 0.434204, 0.103575
0.0458328, 0.434206, 0.103558
0.0506574, 0.434206, 0.103556
0.0554815, 0.434203, 0.103588
0.0603115, 0.434242, 0.103146
0.0651487, 0.434325, 0.102211
0.069989, 0.434415, 0.101202
0.0748376, 0.434541, 0.0997787
0.0796903, 0.434675, 0.0982704
0.084546, 0.434808, 0.0967674
0.0894047, 0.434942, 0.0952587
0.0942838, 0.435156, 0.0928388
0.0991711, 0.435385, 0.0902548
0.104071, 0.435648, 0.087296
0.108987, 0.435948, 0.0839043
0.113911, 0.436253, 0.0804691
0.118831, 0.43652, 0.0774555
0.123738, 0.436721, 0.0751934
0.128649, 0.436922, 0.0729275
0.133565, 0.437123, 0.0706558
0.138475, 0.437288, 0.0687971
0.143386, 0.437448, 0.0669932
0.148325, 0.437681, 0.0643673
0.153276, 0.437932, 0.0615387
0.158233, 0.438183, 0.0587034
0.16324, 0.438556, 0.0545006
0.168221, 0.438838, 0.0513163
0.173151, 0.438974, 0.0497909
0.178025, 0.438966, 0.0498729
0.182781, 0.438674, 0.0531745
0.186418, 0.435782, 0.0857849
0.190989, 0.435165, 0.0927377
0.195665, 0.43481, 0.0967383
0.200364, 0.434524, 0.0999675
0.20506, 0.434244, 0.103121
0.209823, 0.434117, 0.104558
0.214579, 0.43398, 0.106108
0.219332, 0.433843, 0.107644
0.22409, 0.433722, 0.109014
0.228858, 0.433626, 0.11009
0.233642, 0.433563, 0.110804
0.238425, 0.4335, 0.111512
0.243206, 0.433437, 0.112224
0.247983, 0.433369, 0.112991
0.252758, 0.4333, 0.113772
0.257532, 0.433231, 0.114548
0.262304, 0.433162, 0.115329
0.267087, 0.433114, 0.115865
0.271938, 0.433175, 0.115183
0.276787, 0.433231, 0.114546
0.281635, 0.433285, 0.113942
0.286484, 0.433338, 0.113344
0.291345, 0.433405, 0.112581
0.29625, 0.433537, 0.111098
0.301164, 0.433676, 0.109529
0.306091, 0.43383, 0.107797
0.311022, 0.433984, 0.10606
0.315956, 0.434137, 0.104326
0.320948, 0.434366, 0.101754
0.325998, 0.434664, 0.0983911
0.331057, 0.434965, 0.0949941
0.336125, 0.43527, 0.0915523
0.341164, 0.435528, 0.0886416
0.346145, 0.435708, 0.0866213
0.351146, 0.435905, 0.0843968
0.35618, 0.436139, 0.0817604
0.36122, 0.436373, 0.0791187
0.366398, 0.436765, 0.0746942
0.371786, 0.437396, 0.0675836
0.377765, 0.438694, 0.0529394
-0.232705, 0.447447, 0.0279036
-0.227368, 0.446587, 0.0374589
-0.222072, 0.445772, 0.0465131
-0.216699, 0.44476, 0.0577517
-0.211565, 0.444205, 0.063921
-0.206389, 0.443533, 0.0713887
-0.201278, 0.442973, 0.0776086
-0.196142, 0.442327, 0.0847888
-0.191043, 0.441737, 0.0913472
-0.186033, 0.441326, 0.0959206
-0.181099, 0.441076, 0.0986977
-0.176196, 0.440893, 0.100723
-0.171288, 0.440684, 0.103052
-0.166377, 0.440458, 0.105565
-0.161495, 0.440296, 0.107365
-0.156639, 0.440195, 0.108484
-0.151784, 0.440092, 0.109628
-0.14693, 0.439988, 0.110786
-0.142088, 0.439912, 0.11163
-0.137259, 0.439872, 0.112072
-0.132434, 0.43984, 0.112428
-0.127614, 0.439826, 0.112579
-0.122795, 0.439814, 0.112716
-0.117977, 0.439807, 0.112797
-0.113169, 0.439832, 0.112516
-0.108349, 0.439817, 0.112686
-0.10353, 0.4398, 0.112871
-0.0987114, 0.439788, 0.113011
-0.0939309, 0.43995, 0.111204
-0.0891444, 0.4401, 0.109542
-0.0843466, 0.440209, 0.108332
-0.079552, 0.440349, 0.106778
-0.0747653, 0.440552, 0.104511
-0.0699759, 0.440768, 0.10212
-0.0652178, 0.441227, 0.0970149
-0.0603963, 0.441295, 0.0962567
-0.0555545, 0.441215, 0.0971465
-0.0507168, 0.441155, 0.0978117
-0.0458792, 0.441084, 0.0986004
-0.0410432, 0.441013, 0.0993948
-0.036208, 0.440934, 0.100274
-0.0313747, 0.440855, 0.101147
-0.0265431, 0.440776, 0.102025
-0.0217132, 0.440697, 0.102907
-0.0168853, 0.440627, 0.103685
-0.0120598, 0.440584, 0.104159
-0.00723515, 0.440542, 0.104628
-0.00241144, 0.440499, 0.105101
0.00241121, 0.440457, 0.105569
0.00723313, 0.440419, 0.105992
0.0120544, 0.440387, 0.10635
0.016875, 0.440356, 0.106694
0.0216965, 0.440357, 0.106682
0.026518, 0.440359, 0.106656
0.0313395, 0.440361, 0.106635
0.0361609, 0.44036, 0.106647
0.0409822, 0.440358, 0.106675
0.0458034, 0.440356, 0.106698
0.0506246, 0.440353, 0.106725
0.0554456, 0.44035, 0.106757
0.0602728, 0.440393, 0.106286
0.0651046, 0.440461, 0.10553
0.0699383, 0.440531, 0.104749
0.074777, 0.440621, 0.103745
0.0796179, 0.440713, 0.102725
0.0844606, 0.440804, 0.101719
0.0893054, 0.440895, 0.100708
0.0941685, 0.441063, 0.0988364
0.0990497, 0.441295, 0.0962625
0.103936, 0.441527, 0.0936832
0.10883, 0.441771, 0.0909691
0.113741, 0.442058, 0.0877819
0.118663, 0.442362, 0.0844002
0.123584, 0.442642, 0.0812926
0.128496, 0.442867, 0.0787973
0.133399, 0.443046, 0.0768046
0.138307, 0.443229, 0.0747671
0.143222, 0.443422, 0.0726247
0.148155, 0.443654, 0.0700488
0.153099, 0.443906, 0.0672493
0.158039, 0.44413, 0.0647535
0.162984, 0.444355, 0.062252
0.167919, 0.44454, 0.0602036
0.172766, 0.444487, 0.0607882
0.177612, 0.444435, 0.061367
0.182461, 0.444394, 0.0618215
0.186455, 0.442327, 0.0847936
0.191034, 0.441715, 0.0915961
0.195683, 0.441294, 0.0962729
0.200385, 0.441009, 0.0994425
0.205081, 0.440724, 0.102605
0.209832, 0.440566, 0.10436
0.214595, 0.440442, 0.105742
0.219351, 0.440308, 0.107227
0.224104, 0.440175, 0.108706
0.228879, 0.44009, 0.109654
0.233663, 0.440025, 0.110376
0.238432, 0.439936, 0.111363
0.243194, 0.439836, 0.112473
0.247966, 0.439759, 0.113329
0.25276, 0.439722, 0.113742
0.25755, 0.43968, 0.11421
0.262322, 0.439609, 0.114991
0.267093, 0.43954, 0.115766
0.271901, 0.439533, 0.115839
0.276749, 0.43959, 0.115211
0.281597, 0.439644, 0.114608
0.286445, 0.439698, 0.11401
0.291304, 0.439764, 0.113267
0.296184, 0.439861, 0.112192
0.301106, 0.440016, 0.110475
0.306032, 0.440172, 0.108742
0.310961, 0.440327, 0.107015
0.315894, 0.440483, 0.105281
0.32083, 0.440639, 0.103554
0.325848, 0.440901, 0.100639
0.330904, 0.441205, 0.0972614
0.33597, 0.441515, 0.0938201
0.341039, 0.441819, 0.0904331
0.346072, 0.442068, 0.087667
0.35107, 0.442268, 0.085453
0.356103, 0.442505, 0.0828166
0.361142, 0.442742, 0.0801754
0.366204, 0.443002, 0.0772905
0.371523, 0.443562, 0.071074
0.377121, 0.444435, 0.0613675
-0.232615, 0.453803, 0.0298223
-0.227122, 0.452617, 0.0428195
-0.221725, 0.451572, 0.0542598
-0.216499, 0.450837, 0.0623131
-0.211346, 0.450223, 0.0690298
-0.206225, 0.449651, 0.0753031
-0.201123, 0.449093, 0.0814128
-0.196016, 0.448498, 0.0879259
-0.190936, 0.447935, 0.0940962
-0.185992, 0.447668, 0.0970168
-0.18106, 0.447418, 0.0997534
-0.176151, 0.447214, 0.101988
-0.171256, 0.447034, 0.103958
-0.166384, 0.446905, 0.105376
-0.161514, 0.446775, 0.106798
-0.156652, 0.44666, 0.108056
-0.151801, 0.446567, 0.10908
-0.146947, 0.446462, 0.110228
-0.142096, 0.446357, 0.111382
-0.137264, 0.44631, 0.111892
-0.13244, 0.446283, 0.112188
-0.12762, 0.446268, 0.11235
-0.1228, 0.446255, 0.112496
-0.117983, 0.446248, 0.112568
-0.113171, 0.446261, 0.112425
-0.108366, 0.446309, 0.111899
-0.103546, 0.446293, 0.112074
-0.0987265, 0.446276, 0.112264
-0.0939143, 0.446294, 0.112071
-0.0891291, 0.446448, 0.110378
-0.0843358, 0.446578, 0.10896
-0.0795402, 0.44671, 0.107505
-0.0747417, 0.446843, 0.106056
-0.0699492, 0.447032, 0.103983
-0.0651719, 0.447353, 0.100472
-0.0603616, 0.44748, 0.0990763
-0.055525, 0.447419, 0.0997472
-0.0506901, 0.44736, 0.100392
-0.0458543, 0.447281, 0.101261
-0.0410207, 0.447206, 0.102075
-0.0361886, 0.447131, 0.102903
-0.0313582, 0.447055, 0.103727
-0.0265295, 0.446981, 0.104545
-0.0217023, 0.446906, 0.105368
-0.0168768, 0.446833, 0.106165
-0.0120535, 0.446782, 0.106719
-0.00723125, 0.446732, 0.107267
-0.00241011, 0.446683, 0.10781
0.00240983, 0.446632, 0.108368
0.00722892, 0.446589, 0.108841
0.0120471, 0.446546, 0.109309
0.0168645, 0.446508, 0.109721
0.0216829, 0.446507, 0.10973
0.0265013, 0.446505, 0.109754
0.0313194, 0.446503, 0.109782
0.0361375, 0.4465, 0.109815
0.0409557, 0.446497, 0.109842
0.0457737, 0.446494, 0.109875
0.0505917, 0.446492, 0.109902
0.0554096, 0.446489, 0.109934
0.0602342, 0.446535, 0.109422
0.0650628, 0.446604, 0.108667
0.0698929, 0.446672, 0.107926
0.0747247, 0.446741, 0.107171
0.0795601, 0.446822, 0.10628
0.0843995, 0.446915, 0.105265
0.0892407, 0.447007, 0.104255
0.0940939, 0.447147, 0.102721
0.0989566, 0.447316, 0.100874
0.103823, 0.447485, 0.0990214
0.108694, 0.44766, 0.0971041
0.113585, 0.447896, 0.0945244
0.118493, 0.448176, 0.0914521
0.123384, 0.448376, 0.0892601
0.128322, 0.448725, 0.0854411
0.133249, 0.449008, 0.0823436
0.138159, 0.44922, 0.0800171
0.143065, 0.449402, 0.0780239
0.147978, 0.449595, 0.0759158
0.152897, 0.449791, 0.0737638
0.15782, 0.449988, 0.0716066
0.162747, 0.450185, 0.0694532
0.167684, 0.450397, 0.0671263
0.172544, 0.450396, 0.0671439
0.177401, 0.450387, 0.0672345
0.182217, 0.450279, 0.0684252
0.186449, 0.448768, 0.0849652
0.191094, 0.448304, 0.0900555
0.19572, 0.447819, 0.0953588
0.200408, 0.447497, 0.0988955
0.205104, 0.447206, 0.102078
0.209838, 0.44701, 0.104221
0.214601, 0.446884, 0.105602
0.219362, 0.446759, 0.106977
0.22412, 0.446634, 0.108348
0.228888, 0.446532, 0.109464
0.233653, 0.446429, 0.110585
0.238416, 0.446328, 0.111691
0.243178, 0.446227, 0.1128
0.247937, 0.446125, 0.113915
0.252727, 0.446084, 0.114368
0.257519, 0.446046, 0.114786
0.262311, 0.446008, 0.115198
0.267101, 0.44597, 0.115615
0.271881, 0.445916, 0.116205
0.276712, 0.445947, 0.115866
0.281567, 0.446015, 0.115124
0.286426, 0.446087, 0.114337
0.291287, 0.446159, 0.113544
0.296149, 0.44623, 0.112767
0.30105, 0.446356, 0.111388
0.305974, 0.446512, 0.109675
0.310901, 0.446669, 0.107957
0.315832, 0.446826, 0.106236
0.320767, 0.446984, 0.104507
0.325706, 0.447142, 0.102775
0.330751, 0.447439, 0.0995274
0.335815, 0.447753, 0.096086
0.340886, 0.448068, 0.0926394
0.345951, 0.448365, 0.0893869
0.351008, 0.448644, 0.086329
0.356059, 0.448908, 0.0834341
0.361115, 0.449172, 0.0805445
0.366178, 0.449436, 0.0776505
0.371351, 0.449828, 0.0733609
0.376707, 0.450429, 0.0667834
0.382433, 0.451449, 0.055604
-0.238277, 0.461815, 0.0138168
-0.232303, 0.459716, 0.0364838
-0.226797, 0.458472, 0.0499172
-0.221497, 0.457598, 0.0593472
-0.216304, 0.456912, 0.0667539
-0.211177, 0.456335, 0.0729818
-0.206076, 0.45579, 0.078867
-0.200996, 0.455268, 0.0845084
-0.195891, 0.454661, 0.0910606
-0.190896, 0.454284, 0.09513
-0.185951, 0.454011, 0.0980802
-0.181021, 0.453758, 0.100807
-0.176131, 0.453597, 0.102554
-0.171273, 0.453512, 0.103468
-0.166403, 0.453387, 0.104816
-0.161533, 0.453256, 0.106229
-0.156665, 0.453124, 0.107656
-0.151811, 0.453024, 0.108739
-0.146961, 0.452928, 0.109768
-0.142112, 0.452831, 0.110822
-0.137269, 0.452747, 0.111721
-0.132447, 0.452726, 0.111947
-0.127626, 0.452712, 0.112109
-0.122806, 0.452696, 0.112275
-0.117989, 0.452691, 0.112328
-0.113173, 0.452693, 0.112313
-0.108367, 0.452733, 0.111876
-0.103563, 0.452788, 0.111286
-0.0987426, 0.452771, 0.111466
-0.093925, 0.452767, 0.111511
-0.089123, 0.452841, 0.110715
-0.084324, 0.45294, 0.109644
-0.079526, 0.453057, 0.108379
-0.0747287, 0.453193, 0.10691
-0.0699322, 0.453354, 0.105177
-0.0651475, 0.45362, 0.102304
-0.0603405, 0.45376, 0.100789
-0.0555125, 0.453754, 0.100851
-0.0506784, 0.453692, 0.101526
-0.0458444, 0.453618, 0.102325
-0.0410118, 0.453542, 0.103139
-0.0361808, 0.453466, 0.103958
-0.0313514, 0.45339, 0.104782
-0.0265237, 0.453313, 0.105609
-0.0216976, 0.453238, 0.106423
-0.016873, 0.453162, 0.10725
-0.0120508, 0.45311, 0.107804
-0.00722964, 0.45306, 0.108351
-0.00240957, 0.453008, 0.108904
0.0024093, 0.452958, 0.109452
0.00722722, 0.452907, 0.109994
0.0120439, 0.45285, 0.110611
0.0168594, 0.452795, 0.111213
0.0216748, 0.452761, 0.11157
0.02649, 0.452738, 0.111823
0.0313054, 0.452724, 0.11197
0.0361205, 0.45271, 0.112123
0.0409352, 0.452696, 0.11228
0.0457498, 0.452682, 0.112432
0.0505639, 0.452667, 0.112589
0.0553778, 0.452653, 0.11274
0.0601971, 0.452682, 0.112428
0.0650211, 0.45274, 0.111802
0.0698481, 0.452809, 0.111062
0.0746768, 0.452879, 0.110305
0.0795067, 0.452947, 0.109564
0.0843384, 0.453017, 0.108809
0.0891761, 0.453111, 0.107798
0.0940239, 0.453244, 0.106364
0.0988828, 0.453414, 0.104527
0.103745, 0.453584, 0.102684
0.108612, 0.453756, 0.100827
0.113482, 0.453927, 0.0989842
0.118356, 0.454102, 0.0970969
0.123224, 0.454238, 0.0956321
0.128105, 0.454412, 0.0937538
0.132997, 0.454609, 0.0916214
0.137924, 0.454907, 0.0884094
0.142909, 0.455371, 0.0833907
0.147821, 0.45558, 0.0811334
0.152726, 0.455754, 0.0792599
0.157633, 0.455923, 0.0774312
0.162544, 0.456092, 0.0756068
0.167457, 0.456261, 0.0737872
0.172335, 0.456323, 0.0731168
0.17718, 0.456298, 0.0733871
0.181942, 0.456068, 0.0758705
0.186462, 0.455258, 0.0846176
0.191129, 0.45484, 0.0891309
0.195757, 0.45435, 0.0944238
0.200446, 0.454022, 0.0979595
0.205128, 0.453695, 0.10149
0.209844, 0.453455, 0.10408
0.214607, 0.453327, 0.105462
0.219361, 0.453185, 0.106996
0.224102, 0.453023, 0.108744
0.228859, 0.452901, 0.110069
0.233632, 0.452812, 0.11102
0.2384, 0.452719, 0.112026
0.243161, 0.452616, 0.113136
0.247919, 0.452513, 0.114251
0.252695, 0.452445, 0.114992
0.257486, 0.452406, 0.115408
0.262277, 0.452368, 0.115821
0.267068, 0.452332, 0.116208
0.271871, 0.452316, 0.116382
0.276697, 0.452339, 0.116132
0.281552, 0.452408, 0.115389
0.28641, 0.45248, 0.114612
0.29127, 0.452552, 0.113829
0.296133, 0.452625, 0.113042
0.300996, 0.452698, 0.112259
0.305916, 0.452853, 0.110587
0.310843, 0.453012, 0.10887
0.315773, 0.45317, 0.107156
0.320706, 0.453329, 0.10544
0.325644, 0.453489, 0.103717
0.330599, 0.453668, 0.10178
0.335666, 0.453994, 0.0982599
0.340754, 0.454339, 0.0945358
0.345844, 0.454675, 0.0909057
0.350917, 0.454982, 0.0875998
0.356008, 0.455302, 0.0841389
0.361089, 0.455602, 0.0809021
0.366151, 0.45587, 0.0780082
0.37122, 0.456139, 0.0750999
0.376539, 0.456705, 0.0689888
0.381966, 0.457386, 0.0616436
0.387722, 0.458439, 0.0502725
-0.237669, 0.467171, 0.0265436
-0.231997, 0.465623, 0.0430226
-0.226515, 0.464395, 0.0560865
-0.221324, 0.463726, 0.0632091
-0.216169, 0.463103, 0.0698485
-0.211034, 0.462495, 0.0763144
-0.205946, 0.461966, 0.0819502
-0.200867, 0.46143, 0.0876613
-0.195806, 0.46091, 0.0931978
-0.190856, 0.460631, 0.0961633
-0.185912, 0.460354, 0.099113
-0.18099, 0.460117, 0.10163
-0.176133, 0.460036, 0.102501
-0.171277, 0.459954, 0.103366
-0.166417, 0.459857, 0.104406
-0.161549, 0.459731, 0.105748
-0.156683, 0.459605, 0.107086
-0.151822, 0.459482, 0.108397
-0.146971, 0.459385, 0.109426
-0.142123, 0.459289, 0.11045
-0.137283, 0.459216, 0.111229
-0.132461, 0.459199, 0.111406
-0.127641, 0.459188, 0.111528
-0.122822, 0.459177, 0.111645
-0.118002, 0.459163, 0.111786
-0.113183, 0.459154, 0.111892
-0.108366, 0.459151, 0.111923
-0.103562, 0.459206, 0.111332
-0.098758, 0.459265, 0.110706
-0.0939377, 0.459251, 0.11085
-0.0891279, 0.45929, 0.110443
-0.084329, 0.459392, 0.109352
-0.0795204, 0.459451, 0.108726
-0.0747235, 0.45959, 0.107246
-0.0699278, 0.459756, 0.105483
-0.0651249, 0.459895, 0.104003
-0.0603166, 0.460014, 0.102727
-0.0554925, 0.460024, 0.102622
-0.050667, 0.460024, 0.102629
-0.0458344, 0.459952, 0.103389
-0.0410028, 0.459875, 0.104212
-0.036173, 0.459799, 0.105021
-0.0313446, 0.459722, 0.105844
-0.026518, 0.459645, 0.106662
-0.0216929, 0.459568, 0.107484
-0.0168694, 0.459491, 0.108303
-0.0120481, 0.459436, 0.108885
-0.00722805, 0.459384, 0.109434
-0.00240904, 0.459332, 0.109986
0.00240873, 0.459274, 0.110614
0.00722538, 0.459215, 0.111236
0.0120408, 0.459156, 0.111863
0.0168551, 0.459102, 0.112444
0.0216693, 0.459067, 0.112811
0.0264827, 0.459033, 0.113173
0.0312954, 0.459, 0.11353
0.0361087, 0.458982, 0.113723
0.0409218, 0.458967, 0.113879
0.0457348, 0.458953, 0.114031
0.0505474, 0.458938, 0.114188
0.0553597, 0.458924, 0.114339
0.0601778, 0.458956, 0.113997
0.0649983, 0.459001, 0.113521
0.0698199, 0.459046, 0.113039
0.0746423, 0.459091, 0.112562
0.0794658, 0.459136, 0.11208
0.0842902, 0.459181, 0.111602
0.0891156, 0.459226, 0.111119
0.093954, 0.459331, 0.110004
0.0988103, 0.459508, 0.108118
0.10367, 0.459685, 0.106236
0.108534, 0.459862, 0.104349
0.113401, 0.46004, 0.102456
0.118273, 0.460217, 0.100568
0.123139, 0.460362, 0.0990238
0.128002, 0.460485, 0.0977139
0.132868, 0.460609, 0.0963974
0.137737, 0.460733, 0.0950766
0.142616, 0.460883, 0.0934815
0.147501, 0.461042, 0.0917916
0.15238, 0.461172, 0.0904055
0.157299, 0.46141, 0.0878701
0.162223, 0.46165, 0.085319
0.167152, 0.461889, 0.0827737
0.172037, 0.461996, 0.0816355
0.176855, 0.461922, 0.0824227
0.181667, 0.461837, 0.0833235
0.186415, 0.4616, 0.0858512
0.191118, 0.461263, 0.0894375
0.195795, 0.460883, 0.0934763
0.200484, 0.46055, 0.0970221
0.205155, 0.460191, 0.100851
0.20984, 0.459879, 0.104167
0.214596, 0.459734, 0.105717
0.219349, 0.459588, 0.107271
0.224074, 0.459393, 0.109346
0.228824, 0.459253, 0.11083
0.233596, 0.459164, 0.111782
0.238365, 0.459074, 0.112738
0.243134, 0.458985, 0.113688
0.2479, 0.458895, 0.114644
0.252663, 0.458804, 0.115613
0.25746, 0.458777, 0.115901
0.262263, 0.458761, 0.116075
0.267066, 0.458745, 0.116243
0.271877, 0.458743, 0.116267
0.276693, 0.458749, 0.116196
0.281543, 0.458811, 0.115543
0.286399, 0.45888, 0.114806
0.291256, 0.45895, 0.114063
0.296116, 0.45902, 0.113316
0.300979, 0.459093, 0.112533
0.30586, 0.459191, 0.111497
0.310785, 0.459352, 0.109779
0.315714, 0.459513, 0.108067
0.320649, 0.459677, 0.10632
0.325592, 0.459848, 0.104498
0.33054, 0.460021, 0.102652
0.335561, 0.46029, 0.0997968
0.340648, 0.460639, 0.0960727
0.345733, 0.460978, 0.0924735
0.350818, 0.461305, 0.0889883
0.355899, 0.46162, 0.0856371
0.361, 0.461951, 0.0821128
0.366108, 0.462282, 0.0785832
0.371192, 0.462575, 0.0754666
0.376373, 0.462979, 0.0711632
0.381722, 0.463577, 0.0648007
0.387238, 0.464361, 0.0564489
-0.243158, 0.474853, 0.014483
-0.237389, 0.473147, 0.0323954
-0.231795, 0.471723, 0.0473409
-0.226372, 0.470594, 0.0592003
-0.221196, 0.469939, 0.0660729
-0.216055, 0.469333, 0.0724344
