0.0435073, 0.161138, 0.0937858
0.0532393, 0.161331, 0.0878997
0.0629734, 0.16147, 0.0836639
0.154684, 0.166327, -0.0642037
0.164421, 0.166082, -0.0567474
0.174292, 0.165992, -0.0540171
0.184273, 0.166011, -0.0545983
0.194403, 0.166156, -0.0590105
0.204408, 0.166185, -0.0598869
0.363546, 0.161576, 0.08044
0.37283, 0.161398, 0.0858579
0.382365, 0.161335, 0.0877671
0.3924, 0.161481, 0.0833292
0.402614, 0.161692, 0.0769014
-0.194865, 0.179875, -0.071034
-0.184663, 0.179672, -0.0653119
-0.174607, 0.179596, -0.0631504
-0.164614, 0.179578, -0.0626674
-0.154714, 0.179668, -0.065186
-0.144833, 0.179792, -0.0686922
-0.134857, 0.17981, -0.0691848
0.0145149, 0.174178, 0.0895729
0.0241697, 0.174022, 0.0939698
0.033841, 0.17404, 0.0934849
0.0435622, 0.174249, 0.0875897
0.0532845, 0.174386, 0.0837269
0.154626, 0.179565, -0.0622969
0.164438, 0.179387, -0.0572734
0.174285, 0.179264, -0.0538168
0.184173, 0.179195, -0.0518637
0.194161, 0.179226, -0.0527205
0.204248, 0.179339, -0.0559292
0.214533, 0.179609, -0.0635328
0.363658, 0.174556, 0.0789351
0.373007, 0.174393, 0.083528
0.382586, 0.174343, 0.0849271
0.392796, 0.174576, 0.0783548
0.403032, 0.174809, 0.0717869
-0.194648, 0.192984, -0.0653868
-0.184449, 0.192757, -0.0594263
-0.174443, 0.192718, -0.0583906
-0.164606, 0.192872, -0.0624361
-0.154787, 0.193068, -0.067595
0.00483858, 0.187091, 0.0892949
0.0145028, 0.186924, 0.0936732
0.0241731, 0.186939, 0.0932841
0.0338824, 0.18716, 0.0874839
0.0435928, 0.187287, 0.0841365
0.164702, 0.192984, -0.0653749
0.174432, 0.192706, -0.0580764
0.18426, 0.192559, -0.0542407
0.194135, 0.192476, -0.0520539
0.204138, 0.19252, -0.0532026
0.214237, 0.192647, -0.0565391
0.22444, 0.192852, -0.0619183
0.363674, 0.187494, 0.0787196
0.373076, 0.187345, 0.0826197
0.382706, 0.187316, 0.0833912
0.393025, 0.187617, 0.0754976
-0.19466, 0.206306, -0.0656953
-0.184405, 0.206002, -0.0582271
-0.174369, 0.205922, -0.0562577
-0.164507, 0.20605, -0.059402
-0.154717, 0.206289, -0.0652857
-0.0145335, 0.200239, 0.0832767
-0.00483867, 0.199998, 0.0892005
0.0048344, 0.199821, 0.0935373
0.0145021, 0.199807, 0.0938935
0.0241987, 0.200043, 0.0880909
0.0339025, 0.200186, 0.084568
0.184495, 0.206102, -0.060699
0.194283, 0.205907, -0.0558901
0.20414, 0.205799, -0.0532527
0.21415, 0.20585, -0.0544915
0.224219, 0.20595, -0.0569439
0.234371, 0.206113, -0.0609684
0.363861, 0.200528, 0.0761867
0.37307, 0.200263, 0.0826917
0.382832, 0.2003, 0.0817676
0.393163, 0.200627, 0.0737576
-0.194736, 0.219703, -0.0676932
-0.184457, 0.219354, -0.0596495
-0.174399, 0.219244, -0.0571136
-0.164495, 0.219327, -0.0590315
-0.154648, 0.2195, -0.063015
-0.0242032, 0.212989, 0.0871739
-0.0145168, 0.212913, 0.088922
-0.00483425, 0.212706, 0.093689
0.00483261, 0.212634, 0.0953498
0.0145143, 0.212875, 0.0897932
0.0242126, 0.213071, 0.0852761
0.194596, 0.219544, -0.0640345
0.204304, 0.219253, -0.0573134
0.214116, 0.219095, -0.0536785
0.224105, 0.219125, -0.0543737
0.234162, 0.219216, -0.0564618
0.244192, 0.219275, -0.0578232
0.363712, 0.213378, 0.0781984
0.373069, 0.213182, 0.0827074
0.382996, 0.213314, 0.0796585
0.393304, 0.213647, 0.0719967
-0.19482, 0.233118, -0.0698657
-0.184601, 0.23283, -0.0636125
-0.174455, 0.232607, -0.0587564
-0.164463, 0.232574, -0.0580459
-0.154561, 0.232672, -0.0601659
-0.144753, 0.232936, -0.0659022
-0.0338985, 0.22599, 0.0851493
-0.0241816, 0.225696, 0.0915556
-0.0144952, 0.22548, 0.0962424
-0.00483043, 0.225419, 0.0975623
0.00483421, 0.225595, 0.0937333
0.0145221, 0.225899, 0.0871325
0.204509, 0.232774, -0.062386
0.214303, 0.232577, -0.0581079
0.224045, 0.232343, -0.0530124
0.234011, 0.232351, -0.053196
0.244083, 0.23246, -0.0555587
0.25404, 0.232455, -0.0554404
0.354585, 0.226675, 0.070251
0.363625, 0.226255, 0.0793819
0.373072, 0.226104, 0.0826674
0.383118, 0.226314, 0.0780978
0.393445, 0.226676, 0.0702229
-0.194925, 0.246572, -0.0726008
-0.184648, 0.246197, -0.0648994
-0.174452, 0.245894, -0.0586486
-0.164418, 0.245797, -0.0566578
-0.154507, 0.245883, -0.0584211
-0.144659, 0.246087, -0.0626283
-0.0435709, 0.238833, 0.0866141
-0.0338597, 0.23863, 0.0907831
-0.024152, 0.2383, 0.0975704
-0.0144817, 0.238143, 0.100796
-0.00482883, 0.238222, 0.0991864
0.00483695, 0.238622, 0.0909438
0.0145337, 0.238997, 0.0832272
0.214612, 0.246222, -0.0654001
0.224165, 0.245752, -0.0557261
0.233953, 0.245568, -0.0519476
0.243912, 0.245571, -0.0520124
0.253995, 0.245695, -0.0545568
0.263928, 0.245669, -0.0540242
0.273982, 0.245753, -0.0557609
0.354278, 0.239421, 0.0745101
0.363548, 0.239134, 0.0804248
0.373076, 0.239027, 0.0826111
0.383246, 0.239327, 0.0764489
0.393339, 0.239564, 0.0715618
-0.195, 0.26, -0.0745478
-0.184644, 0.2595, -0.0647836
-0.174439, 0.259167, -0.0582895
-0.16438, 0.259022, -0.0554686
-0.154453, 0.259083, -0.0566545
-0.144585, 0.259255, -0.0600128
-0.134783, 0.259582, -0.0663943
-0.0532719, 0.251831, 0.0848851
-0.0435448, 0.251592, 0.0895586
-0.0338183, 0.251222, 0.0967755
-0.0241363, 0.251018, 0.10075
-0.0144825, 0.25103, 0.100523
-0.00483274, 0.251302, 0.095221
0.00484068, 0.251715, 0.0871596
0.234083, 0.258986, -0.0547566
0.243852, 0.258782, -0.0507817
0.253806, 0.258783, -0.0507903
0.263894, 0.258915, -0.0533776
0.273832, 0.258895, -0.0529923
0.283747, 0.258857, -0.0522418
0.354201, 0.252307, 0.0755916
0.363418, 0.25197, 0.0821829
0.373048, 0.251928, 0.0829873
0.383309, 0.252305, 0.0756431
0.393527, 0.252635, 0.0692034
-0.194981, 0.273307, -0.0740652
-0.184577, 0.272709, -0.0629597
-0.17439, 0.27238, -0.0568624
-0.164333, 0.272229, -0.054049
-0.154391, 0.272259, -0.054606
-0.14449, 0.272372, -0.056706
-0.134682, 0.272689, -0.0625892
-0.0629487, 0.264707, 0.0855961
-0.0532149, 0.264462, 0.0901427
-0.0434999, 0.264221, 0.0946136
-0.0338073, 0.264019, 0.0983768
-0.0241482, 0.264021, 0.0983396
-0.0145035, 0.264286, 0.0934238
-0.00484149, 0.264667, 0.0863419
0.243981, 0.272196, -0.0534468
0.253732, 0.271974, -0.0493259
0.263655, 0.271946, -0.0487919
0.27369, 0.272031, -0.0503788
0.283662, 0.27205, -0.0507259
0.293695, 0.272124, -0.0521069
0.303767, 0.272228, -0.0540366
0.344569, 0.265302, 0.0745602
0.353899, 0.26502, 0.079792
0.363114, 0.264669, 0.0862947
0.372886, 0.264733, 0.0851216
0.383182, 0.265156, 0.077271
0.39351, 0.265579, 0.069418
-0.194976, 0.286631, -0.0739164
-0.184539, 0.285952, -0.0619049
-0.174336, 0.285579, -0.0552979
-0.164278, 0.285412, -0.0523467
-0.154308, 0.285387, -0.0519075
-0.144395, 0.285471, -0.0533838
-0.134559, 0.285731, -0.0579915
-0.12479, 0.286185, -0.0660286
-0.0823275, 0.277654, 0.0849943
-0.0725606, 0.277342, 0.0905027
-0.0628399, 0.27714, 0.0940909
-0.0531542, 0.277046, 0.0957465
-0.0434624, 0.276871, 0.0988488
-0.0338054, 0.276882, 0.0986581
-0.0241681, 0.277128, 0.0943055
-0.0145261, 0.277608, 0.0858006
0.253827, 0.285348, -0.0512166
0.263494, 0.285037, -0.0457087
0.273418, 0.285017, -0.0453596
0.283417, 0.285074, -0.0463624
0.29344, 0.28515, -0.0477138
0.303517, 0.285273, -0.0498781
0.334754, 0.278153, 0.0761585
0.344178, 0.277928, 0.0801387
0.353458, 0.277602, 0.0859146
0.362966, 0.277467, 0.0882931
0.372882, 0.277644, 0.0851731
0.38323, 0.278125, 0.0766535
0.393469, 0.278505, 0.0699291
-0.194998, 0.299997, -0.0745058
-0.184526, 0.299232, -0.0615559
-0.174295, 0.298791, -0.0540962
-0.16422, 0.298581, -0.0505571
-0.15423, 0.29851, -0.0493479
-0.144295, 0.298542, -0.0498981
-0.134412, 0.298692, -0.052434
-0.124654, 0.299169, -0.0604887
-0.09193, 0.290305, 0.089437
-0.0821513, 0.289946, 0.0955172
-0.0724355, 0.289742, 0.0989661
-0.0627836, 0.28977, 0.0984845
-0.053105, 0.289664, 0.100287
-0.0434507, 0.289671, 0.100165
-0.0338156, 0.289848, 0.0971718
-0.0242012, 0.290414, 0.0875893
0.254078, 0.298916, -0.0562091
0.263484, 0.298283, -0.0455155
0.273208, 0.298045, -0.0414906
0.283253, 0.298161, -0.0434475
0.293315, 0.298286, -0.0455599
0.303355, 0.298382, -0.0471826
0.313534, 0.298604, -0.0509362
0.31543, 0.291166, 0.0748725
0.324839, 0.290901, 0.0793667
0.334282, 0.29068, 0.0830975
0.343753, 0.290496, 0.0862131
0.353338, 0.290415, 0.0875835
0.363171, 0.290537, 0.0855207
0.373219, 0.29082, 0.0807247
0.383452, 0.291229, 0.0738015
0.393534, 0.291507, 0.0691109
-0.19505, 0.313414, -0.0758638
-0.184576, 0.312615, -0.0629158
-0.174276, 0.312037, -0.0535626
-0.164174, 0.311765, -0.0491481
-0.154151, 0.311617, -0.0467515
-0.144186, 0.311574, -0.0460639
-0.13427, 0.311638, -0.0470958
-0.124456, 0.311971, -0.0524831
-0.114662, 0.312413, -0.0596476
-0.101515, 0.302934, 0.0938616
-0.0917213, 0.302519, 0.100585
-0.0820193, 0.302346, 0.103396
-0.07239, 0.302429, 0.102047
-0.0627289, 0.302386, 0.10275
-0.0530822, 0.302408, 0.102392
-0.043455, 0.302575, 0.0996771
-0.0338468, 0.303009, 0.0926523
-0.0242198, 0.303555, 0.0838122
0.244152, 0.312248, -0.0569801
0.253789, 0.311845, -0.050456
0.263326, 0.311354, -0.0425014
0.273224, 0.31131, -0.0417848
0.283244, 0.311403, -0.0432849
0.293279, 0.311505, -0.0449414
0.301392, 0.309627, -0.014523
0.307265, 0.305639, 0.0500612
0.314651, 0.303356, 0.0870376
0.324127, 0.303164, 0.0901494
0.333743, 0.30311, 0.0910196
0.343538, 0.303217, 0.0892863
0.353508, 0.303468, 0.0852256
0.36364, 0.303841, 0.0791769
0.373659, 0.304103, 0.0749297
0.383626, 0.304311, 0.0715756
0.393561, 0.304483, 0.0687819
-0.195192, 0.326989, -0.0795598
-0.184632, 0.326016, -0.0644503
-0.174274, 0.325312, -0.0535121
-0.164094, 0.324873, -0.0466847
-0.154038, 0.324639, -0.0430493
-0.144046, 0.324518, -0.0411773
-0.134086, 0.324455, -0.0402007
-0.123388, 0.322455, -0.00913048
-0.111172, 0.315793, 0.0943604
-0.101316, 0.315204, 0.103508
-0.0916086, 0.315005, 0.106602
-0.081982, 0.315068, 0.105621
-0.0723447, 0.315101, 0.105111
-0.0627056, 0.315136, 0.104576
-0.0530866, 0.315302, 0.101986
-0.0434839, 0.31566, 0.0964222
-0.0338966, 0.316368, 0.0854259
0.23425, 0.325625, -0.0583653
0.243837, 0.325116, -0.050456
0.253516, 0.324765, -0.0450153
0.263424, 0.324724, -0.0443673
0.273464, 0.324842, -0.0462089
0.279882, 0.320801, 0.016572
0.287533, 0.318398, 0.0538931
0.295024, 0.315982, 0.0914292
0.304457, 0.315733, 0.0952954
0.314003, 0.315613, 0.0971551
0.323655, 0.315604, 0.0972948
0.333441, 0.315722, 0.0954623
0.343404, 0.315996, 0.0912127
0.353629, 0.316489, 0.0835443
0.363969, 0.317057, 0.0747194
0.373956, 0.317296, 0.0710182
-0.184665, 0.339384, -0.0653582
-0.174219, 0.338483, -0.0519166
-0.16393, 0.337794, -0.0416303
-0.1538, 0.337367, -0.0352554
-0.143778, 0.337134, -0.0317717
-0.133039, 0.335062, -0.00084734
-0.12079, 0.328549, 0.0963507
-0.110933, 0.327976, 0.104904
-0.101219, 0.327757, 0.108172
-0.0915785, 0.327755, 0.108211
-0.0819597, 0.327839, 0.106956
-0.0723173, 0.327838, 0.106964
-0.0627105, 0.328024, 0.104192
-0.0531199, 0.328378, 0.0989108
-0.0435454, 0.329009, 0.0894895
0.224187, 0.338772, -0.0562239
0.233785, 0.338242, -0.0483079
0.243479, 0.33789, -0.0430551
0.251944, 0.335926, -0.013742
0.260021, 0.333612, 0.0207958
0.266166, 0.329078, 0.0884528
0.275518, 0.328688, 0.0942798
0.284928, 0.328392, 0.0987053
0.294422, 0.328208, 0.101451
0.304011, 0.328139, 0.102479
0.313713, 0.328192, 0.101688
0.323488, 0.328316, 0.0998368
0.333346, 0.328515, 0.096859
0.343432, 0.328921, 0.0908108
0.353866, 0.329628, 0.0802455
0.364138, 0.330152, 0.0724339
-0.184019, 0.351459, -0.047637
-0.173453, 0.350209, -0.0296793
-0.163284, 0.349658, -0.0217719
-0.152435, 0.347486, 0.00941992
-0.142139, 0.346362, 0.0255713
-0.130456, 0.34144, 0.0962558
-0.120589, 0.340864, 0.104536
-0.110849, 0.340581, 0.108598
-0.101186, 0.340497, 0.109801
-0.0915705, 0.340578, 0.108637
-0.0819312, 0.340577, 0.108654
-0.0723233, 0.340723, 0.106558
-0.0627424, 0.341061, 0.101698
-0.0531819, 0.341653, 0.093195
-0.043573, 0.342128, 0.0863791
0.00493592, 0.348804, -0.00949907
0.204442, 0.352371, -0.060729
0.214177, 0.35198, -0.055119
0.223729, 0.351338, -0.0458946
0.233463, 0.351023, -0.041369
0.240343, 0.346617, 0.021914
0.246667, 0.341787, 0.0912781
0.256059, 0.341411, 0.0966697
0.26552, 0.341153, 0.100384
0.275008, 0.340946, 0.103356
0.284552, 0.34082, 0.105167
0.294185, 0.340804, 0.105387
0.303917, 0.340902, 0.103987
0.313697, 0.341045, 0.101927
0.323567, 0.341274, 0.0986419
0.333688, 0.341748, 0.0918307
0.344065, 0.342449, 0.0817623
-0.192334, 0.361653, -0.00516701
-0.181265, 0.359263, 0.0279093
-0.170531, 0.357303, 0.0550365
-0.160462, 0.356582, 0.065012
-0.150436, 0.355871, 0.0748615
-0.140195, 0.354517, 0.0935917
-0.130317, 0.353948, 0.101469
-0.120524, 0.353538, 0.107144
-0.110816, 0.353327, 0.110058
-0.101184, 0.353342, 0.109858
-0.0915544, 0.353368, 0.109499
-0.0819262, 0.353408, 0.108951
-0.072348, 0.353701, 0.10489
-0.0628018, 0.354266, 0.0970635
-0.0533638, 0.355759, 0.0764074
-0.0439689, 0.358265, 0.0417261
-0.0342047, 0.358335, 0.0407519
-0.0244371, 0.358412, 0.0396938
-0.0146655, 0.358489, 0.0386314
-0.00488969, 0.358576, 0.0374174
0.00489255, 0.358786, 0.0345201
0.0146903, 0.359096, 0.0302258
0.0245071, 0.359437, 0.0255017
0.0343615, 0.359978, 0.0180216
0.0441499, 0.35974, 0.0213151
0.0541192, 0.360795, 0.0067153
0.19454, 0.365802, -0.0625811
0.204125, 0.365101, -0.0528836
0.21366, 0.364382, -0.0429306
0.223473, 0.364178, -0.040113
0.22887, 0.357101, 0.0578275
0.23673, 0.354289, 0.0967445
0.246148, 0.353939, 0.101595
0.255638, 0.353713, 0.104722
0.265177, 0.35357, 0.106703
0.27478, 0.353518, 0.107425
0.284461, 0.353568, 0.106732
0.294217, 0.353704, 0.104851
0.304094, 0.353972, 0.101144
0.31403, 0.35429, 0.0967407
0.324083, 0.354717, 0.0908217
0.334169, 0.355155, 0.0847616
0.344801, 0.356133, 0.0712342
-0.200696, 0.372021, 0.0320005
-0.190189, 0.370625, 0.0506377
-0.179984, 0.369696, 0.0630436
-0.169933, 0.368998, 0.0723653
-0.159897, 0.368248, 0.0823822
-0.149913, 0.367529, 0.0919814
-0.140055, 0.36704, 0.0985107
-0.130253, 0.366638, 0.103881
-0.120511, 0.366355, 0.107667
-0.110815, 0.366172, 0.110106
-0.10117, 0.36614, 0.110536
-0.0915367, 0.366147, 0.110444
-0.0819501, 0.366365, 0.10753
-0.072408, 0.366867, 0.100831
-0.0629784, 0.368182, 0.0832734
-0.0535427, 0.369932, 0.0599008
-0.0438118, 0.369966, 0.0594392
-0.0340811, 0.370023, 0.0586796
-0.0243457, 0.370055, 0.0582509
-0.0146074, 0.370053, 0.0582848
-0.00486966, 0.370092, 0.057755
0.00487066, 0.370169, 0.0567327
0.0146157, 0.370264, 0.0554628
0.0243668, 0.370375, 0.0539775
0.0341361, 0.37062, 0.050705
0.0439304, 0.370967, 0.0460749
0.0537493, 0.371359, 0.0408401
0.0636182, 0.371922, 0.0333271
0.0735032, 0.372416, 0.0267286
0.0834561, 0.373098, 0.0176167
0.174578, 0.379084, -0.0623159
0.184387, 0.378741, -0.0577407
0.193908, 0.377872, -0.046133
0.203419, 0.37707, -0.0354204
0.213061, 0.376573, -0.0287938
0.220324, 0.372103, 0.0309062
0.227108, 0.367239, 0.0958571
0.236458, 0.366751, 0.102377
0.2459, 0.36644, 0.106533
0.255416, 0.366257, 0.108967
0.265, 0.366181, 0.109984
0.27464, 0.366186, 0.109916
0.284402, 0.366348, 0.107759
0.294233, 0.366585, 0.104588
0.304116, 0.36687, 0.100793
0.314068, 0.367218, 0.096137
0.324025, 0.36755, 0.0917039
0.334036, 0.367924, 0.0867162
0.344314, 0.368562, 0.0781932
0.354384, 0.368947, 0.0730472
-0.210462, 0.385032, 0.0325475
-0.200051, 0.383838, 0.0479531
-0.189727, 0.382697, 0.0626726
-0.179553, 0.381753, 0.0748525
-0.169499, 0.38097, 0.0849528
-0.159567, 0.380383, 0.0925303
-0.149729, 0.379958, 0.0980101
-0.13992, 0.379552, 0.103243
-0.130175, 0.379274, 0.10683
-0.120479, 0.379106, 0.109002
-0.110808, 0.378995, 0.110435
-0.101163, 0.378959, 0.110893
-0.0915429, 0.37902, 0.110112
-0.0819707, 0.379316, 0.106295
-0.0724632, 0.380029, 0.0970922
-0.0630374, 0.381457, 0.0786715
-0.0534148, 0.381997, 0.0716987
-0.0437071, 0.382032, 0.0712543
-0.033994, 0.382028, 0.0713053
-0.0242782, 0.381977, 0.0719633
-0.0145649, 0.381921, 0.0726781
-0.00485544, 0.38196, 0.0721784
0.00485595, 0.382, 0.07166
0.0145691, 0.382033, 0.0712347
0.0242855, 0.382093, 0.0704656
0.0340139, 0.382252, 0.0684185
0.0437514, 0.382419, 0.0662522
0.0535033, 0.38263, 0.0635357
0.0632812, 0.382932, 0.0596375
0.0731094, 0.383418, 0.0533705
0.0829869, 0.384018, 0.0456285
0.0929388, 0.384799, 0.0355506
0.102955, 0.385673, 0.0242763
0.112976, 0.386411, 0.0147591
0.164718, 0.392661, -0.0658765
0.174401, 0.391987, -0.0571837
0.183823, 0.390831, -0.0422711
0.193297, 0.389899, -0.0302424
0.202943, 0.389387, -0.0236435
0.212651, 0.389036, -0.0191054
0.217819, 0.38078, 0.0874066
0.2269, 0.379776, 0.100354
0.236294, 0.379356, 0.105779
0.245753, 0.379071, 0.109457
0.25528, 0.378907, 0.111574
0.264799, 0.378742, 0.113692
0.27439, 0.37869, 0.114367
0.284126, 0.378834, 0.112509
0.293918, 0.379042, 0.109827
0.303805, 0.379354, 0.105797
0.313779, 0.379753, 0.100656
0.323791, 0.380172, 0.095243
0.333707, 0.380458, 0.0915618
0.343683, 0.380794, 0.0872216
0.353964, 0.38144, 0.078886
0.364237, 0.382044, 0.071094
-0.22021, 0.398009, 0.0334864
-0.210094, 0.397387, 0.0412493
-0.199644, 0.396041, 0.0580401
-0.189275, 0.394727, 0.0744424
-0.179145, 0.393797, 0.0860376
-0.16919, 0.393166, 0.0939159
-0.159314, 0.392652, 0.100335
-0.149499, 0.392233, 0.105557
-0.139748, 0.391937, 0.109257
-0.130054, 0.391768, 0.11136
-0.120389, 0.391666, 0.112636
-0.110759, 0.39167, 0.11258
-0.101149, 0.391753, 0.111547
-0.0915516, 0.391905, 0.10965
-0.0819796, 0.392216, 0.105768
-0.0724773, 0.392988, 0.096138
-0.0629832, 0.394049, 0.0828986
-0.0533172, 0.394225, 0.0807037
-0.0436206, 0.394201, 0.0810056
-0.0339194, 0.394111, 0.0821233
-0.0242201, 0.39398, 0.0837531
-0.0145293, 0.393904, 0.0847068
-0.00484324, 0.393915, 0.0845656
0.00484338, 0.393927, 0.084424
0.0145305, 0.393935, 0.0843158
0.0242192, 0.393966, 0.08393
0.033917, 0.394083, 0.0824695
0.0436216, 0.39421, 0.0808911
0.0533322, 0.394335, 0.0793233
0.0630564, 0.394506, 0.077188
0.0728227, 0.394861, 0.0727701
0.0826209, 0.395285, 0.0674782
0.0924471, 0.395739, 0.0618143
0.102364, 0.396457, 0.0528455
0.112373, 0.397377, 0.0413685
0.122556, 0.398714, 0.024682
0.132384, 0.398785, 0.0237932
0.142636, 0.400038, 0.00816441
0.164553, 0.405564, -0.0607944
0.17394, 0.404203, -0.0438061
0.183528, 0.40343, -0.0341625
0.193146, 0.4028, -0.0263014
0.202881, 0.402463, -0.0221009
0.211452, 0.399955, 0.00919342
0.21751, 0.393129, 0.0943766
0.226811, 0.392496, 0.102279
0.236215, 0.392084, 0.107416
0.245697, 0.39183, 0.110585
0.255197, 0.391623, 0.113169
0.264685, 0.391413, 0.115792
0.274227, 0.391294, 0.117269
0.283886, 0.391345, 0.116639
0.293636, 0.391515, 0.114518
0.303474, 0.391787, 0.111124
0.313391, 0.39214, 0.106719
0.323421, 0.392611, 0.100841
0.333469, 0.393075, 0.0950513
0.34343, 0.393413, 0.0908356
0.353429, 0.393775, 0.0863218
0.363962, 0.394697, 0.0748119
-0.230229, 0.411472, 0.0284786
-0.220021, 0.410706, 0.0377364
-0.209582, 0.409416, 0.0533237
-0.199157, 0.408028, 0.0700965
-0.1889, 0.406862, 0.0841789
-0.178836, 0.406005, 0.0945358
-0.168996, 0.405591, 0.0995369
-0.159154, 0.405119, 0.105242
-0.149385, 0.404785, 0.109276
-0.139677, 0.404582, 0.111733
-0.130005, 0.404461, 0.113197
-0.120352, 0.404383, 0.114133
-0.110716, 0.404355, 0.11448
-0.101107, 0.404428, 0.113587
-0.0915133, 0.404585, 0.111693
-0.0819433, 0.404896, 0.107934
-0.0724261, 0.405586, 0.0996041
-0.0629043, 0.406458, 0.0890608
-0.0532335, 0.40651, 0.0884314
-0.0435386, 0.40636, 0.0902472
-0.0338511, 0.406213, 0.0920258
-0.0241713, 0.406078, 0.0936627
-0.0144993, 0.405978, 0.094861
-0.00483284, 0.405957, 0.0951238
0.00483256, 0.405933, 0.0954051
0.0144968, 0.405909, 0.0957026
0.0241618, 0.405919, 0.0955787
0.0338321, 0.405984, 0.0947862
0.0435064, 0.406059, 0.0938849
0.0531856, 0.406145, 0.0928507
0.0628767, 0.40628, 0.0912156
0.0726037, 0.40658, 0.0875869
0.0823508, 0.40691, 0.0836077
0.092122, 0.407276, 0.0791798
0.101964, 0.407857, 0.0721579
0.111841, 0.408464, 0.0648246
0.121749, 0.409075, 0.0574436
0.131681, 0.409674, 0.0502052
0.141702, 0.410446, 0.0408788
0.151774, 0.41126, 0.0310497
0.161866, 0.412021, 0.0218482
0.172632, 0.414316, -0.00588036
0.182343, 0.413967, -0.00166464
0.192049, 0.413643, 0.0022521
0.200228, 0.410224, 0.0435634
0.208398, 0.407104, 0.0812659
0.21739, 0.405795, 0.0970702
0.226734, 0.405226, 0.10395
0.236171, 0.404865, 0.108314
0.245657, 0.404611, 0.111385
0.255161, 0.404407, 0.11385
0.264697, 0.404264, 0.115574
0.274239, 0.404142, 0.117052
0.283812, 0.404071, 0.117907
0.293501, 0.404166, 0.116759
0.303231, 0.404308, 0.115046
0.313111, 0.404635, 0.111089
0.323063, 0.405034, 0.106269
0.333175, 0.405604, 0.0993805
0.343271, 0.406123, 0.0931091
0.353286, 0.406521, 0.0883055
0.363397, 0.407004, 0.0824623
0.374118, 0.408129, 0.0688772
-0.230164, 0.424416, 0.0298781
-0.219487, 0.422716, 0.049787
-0.209046, 0.421333, 0.0659776
-0.19879, 0.420206, 0.0791759
-0.18862, 0.419155, 0.0914888
-0.178681, 0.418532, 0.0987763
-0.168877, 0.418171, 0.103003
-0.159078, 0.417782, 0.107564
-0.14934, 0.41751, 0.110746
-0.13964, 0.417317, 0.113013
-0.12998, 0.41722, 0.114139
-0.120337, 0.417169, 0.114741
-0.1107, 0.41713, 0.115197
-0.101084, 0.41717, 0.114724
-0.0914886, 0.417316, 0.113014
-0.0819029, 0.417544, 0.110346
-0.0723575, 0.418065, 0.104243
-0.0628228, 0.418819, 0.0954204
-0.0531611, 0.418846, 0.095108
-0.0434814, 0.418709, 0.096705
-0.0338083, 0.418578, 0.0982361
-0.0241402, 0.418431, 0.0999575
-0.0144794, 0.418293, 0.101584
-0.00482569, 0.418225, 0.102377
0.00482505, 0.418169, 0.10303
0.0144735, 0.418121, 0.10359
0.0241215, 0.418106, 0.103768
0.0337719, 0.418129, 0.103502
0.0434234, 0.418151, 0.103239
0.0530756, 0.418172, 0.102996
0.0627372, 0.418248, 0.102103
0.0724297, 0.418483, 0.0993562
0.0821418, 0.418763, 0.0960798
0.0918739, 0.419074, 0.0924354
0.101662, 0.419557, 0.0867815
0.111511, 0.420187, 0.0793967
0.12136, 0.420716, 0.0732098
0.131154, 0.420989, 0.0700049
0.140969, 0.421286, 0.0665283
0.150809, 0.421618, 0.0626431
0.160569, 0.421697, 0.061718
0.170313, 0.421727, 0.0613642
0.180015, 0.421656, 0.0621963
0.189583, 0.421295, 0.0664234
0.199086, 0.420832, 0.0718484
0.208094, 0.419414, 0.088448
0.217323, 0.418549, 0.0985842
0.226686, 0.418002, 0.104981
0.236162, 0.417702, 0.108496
0.245659, 0.41746, 0.111331
0.255186, 0.417286, 0.113374
0.264732, 0.417154, 0.114918
0.274274, 0.417024, 0.116434
0.283807, 0.416892, 0.117988
0.29345, 0.416924, 0.117608
0.303169, 0.417058, 0.116041
0.312996, 0.417329, 0.112872
0.32289, 0.417669, 0.108883
0.332897, 0.418132, 0.103465
0.343049, 0.418745, 0.0962873
0.353143, 0.419257, 0.0902939
0.36318, 0.419674, 0.085402
0.373527, 0.42042, 0.0766706
0.384721, 0.422057, 0.0575047
-0.240518, 0.438496, 0.018271
-0.229612, 0.436426, 0.0417957
-0.218946, 0.434649, 0.0619798
-0.20867, 0.433516, 0.0748515
-0.198503, 0.43251, 0.0862861
-0.188462, 0.431691, 0.0955887
-0.178607, 0.431231, 0.100817
-0.168846, 0.430958, 0.103909
-0.159098, 0.430689, 0.106975
-0.149374, 0.430453, 0.109647
-0.139667, 0.430238, 0.112089
-0.130004, 0.430136, 0.113251
-0.120358, 0.430078, 0.11391
-0.110726, 0.430065, 0.114063
-0.101085, 0.430014, 0.114638
-0.0914745, 0.43009, 0.11377
-0.0818869, 0.430308, 0.111302
-0.0723124, 0.43066, 0.107299
-0.0627538, 0.431231, 0.100812
-0.0531074, 0.431297, 0.100061
-0.0434398, 0.43118, 0.101394
-0.0337747, 0.431029, 0.103102
-0.0241163, 0.430878, 0.104818
-0.0144652, 0.43074, 0.10639
-0.00482079, 0.430656, 0.107344
0.00481991, 0.430577, 0.108241
0.0144571, 0.430498, 0.109136
0.0240928, 0.430458, 0.109592
0.03373, 0.430459, 0.109587
0.0433679, 0.430466, 0.1095
0.0530072, 0.430483, 0.109311
0.0626527, 0.430537, 0.108699
0.0723181, 0.430694, 0.106908
0.0819951, 0.430876, 0.10484
0.0916855, 0.431083, 0.102498
0.101423, 0.431449, 0.0983396
0.111202, 0.431913, 0.0930595
0.121028, 0.432473, 0.0866985
0.130817, 0.432826, 0.0826879
0.140595, 0.433098, 0.0796022
0.150367, 0.433316, 0.0771203
0.16008, 0.433347, 0.076767
0.169764, 0.433302, 0.0772786
0.179405, 0.433159, 0.0789113
0.188963, 0.432839, 0.0825405
0.198473, 0.432445, 0.0870199
0.207937, 0.431994, 0.0921464
0.217291, 0.431362, 0.0993242
0.226653, 0.4308, 0.105703
0.236139, 0.430513, 0.108973
0.245641, 0.430272, 0.111704
0.255176, 0.430107, 0.113575
0.2647, 0.429936, 0.11552
0.274268, 0.429847, 0.116539
0.283831, 0.429755, 0.117579
0.293429, 0.429722, 0.117959
0.303144, 0.429855, 0.116447
0.312896, 0.430032, 0.114435
0.322769, 0.430359, 0.110718
0.332684, 0.430722, 0.106596
0.342821, 0.431342, 0.099545
0.353029, 0.432017, 0.0918798
0.363115, 0.432511, 0.0862727
0.373312, 0.433107, 0.0794988
0.383923, 0.434141, 0.0677519
-0.240027, 0.450664, 0.0284414
-0.229085, 0.448422, 0.0531702
-0.218649, 0.447015, 0.0686946
-0.208392, 0.445863, 0.0814023
-0.198289, 0.444941, 0.0915728
-0.188376, 0.444374, 0.0978279
-0.17858, 0.444038, 0.101535
-0.168866, 0.443877, 0.103311
-0.159133, 0.443643, 0.105897
-0.149411, 0.443414, 0.108421
-0.13971, 0.443217, 0.110595
-0.130046, 0.443121, 0.111656
-0.120398, 0.443064, 0.112282
-0.110757, 0.443027, 0.112689
-0.101133, 0.443057, 0.11236
-0.0915012, 0.443058, 0.112343
-0.0818899, 0.443169, 0.111118
-0.0723064, 0.443479, 0.107699
-0.0627172, 0.443845, 0.103666
-0.0530765, 0.443913, 0.102918
-0.0434179, 0.443827, 0.103859
-0.033758, 0.443677, 0.105519
-0.0241048, 0.44353, 0.107143
-0.0144585, 0.443393, 0.108652
-0.00481842, 0.443293, 0.109756
0.00481733, 0.443192, 0.110863
0.0144486, 0.443087, 0.112023
0.0240768, 0.443013, 0.112842
0.0337039, 0.442965, 0.113374
0.0433311, 0.442939, 0.113656
0.0529582, 0.442923, 0.113835
0.0625905, 0.442948, 0.113562
0.0722371, 0.443054, 0.112391
0.0818926, 0.443184, 0.110961
0.0915569, 0.443328, 0.109366
0.101264, 0.443634, 0.105994
0.111001, 0.444004, 0.101911
0.120752, 0.444366, 0.0979152
0.130463, 0.44454, 0.0959949
0.140164, 0.44466, 0.0946765
0.14989, 0.444834, 0.0927544
0.159551, 0.44481, 0.0930219
0.169215, 0.444794, 0.0931983
0.178899, 0.44483, 0.0927973
0.188574, 0.444841, 0.0926757
0.198206, 0.444754, 0.0936327
0.207794, 0.444582, 0.0955391
0.217186, 0.444025, 0.101675
0.226577, 0.443512, 0.107338
0.236059, 0.443213, 0.110634
0.245547, 0.442948, 0.113565
0.2551, 0.442815, 0.115031
0.264639, 0.44267, 0.116629
0.274209, 0.442582, 0.117594
0.283806, 0.442545, 0.118005
0.293423, 0.44254, 0.118063
0.303137, 0.442676, 0.116564
0.312873, 0.442836, 0.114796
0.322735, 0.443158, 0.111242
0.332652, 0.443536, 0.107078
0.342722, 0.444091, 0.100954
0.352948, 0.444811, 0.0930076
0.36309, 0.445391, 0.0866141
0.373232, 0.44594, 0.0805564
0.383968, 0.447153, 0.0671759
-0.250686, 0.465326, 0.011292
-0.239618, 0.462935, 0.036922
-0.228799, 0.460843, 0.0593581
-0.218421, 0.459493, 0.0738325
-0.20816, 0.458276, 0.0868807
-0.198174, 0.457572, 0.0944257
-0.188312, 0.4571, 0.0994806
-0.17856, 0.456856, 0.102096
-0.168846, 0.456688, 0.103901
-0.159176, 0.456626, 0.104564
-0.149492, 0.456512, 0.10579
-0.139795, 0.456343, 0.107597
-0.130123, 0.456232, 0.108789
-0.12047, 0.456181, 0.109334
-0.110818, 0.456121, 0.109979
-0.101177, 0.456099, 0.110212
-0.0915449, 0.456119, 0.110004
-0.0819269, 0.456221, 0.108912
-0.0723188, 0.456411, 0.106865
-0.062705, 0.456621, 0.104622
-0.0530609, 0.456645, 0.104357
-0.043406, 0.456566, 0.105212
-0.0337484, 0.456406, 0.106923
-0.0240976, 0.456248, 0.108614
-0.0144538, 0.456095, 0.110259
-0.0048165, 0.45596, 0.111704
0.00481517, 0.455834, 0.113053
0.0144418, 0.455716, 0.114321
0.0240652, 0.455635, 0.115185
0.0336864, 0.455568, 0.115904
0.0433052, 0.455506, 0.116574
0.0529238, 0.455466, 0.117004
0.0625509, 0.455499, 0.116647
0.0721897, 0.455597, 0.115596
0.0818319, 0.455691, 0.114586
0.0914771, 0.455781, 0.113628
0.101153, 0.455991, 0.111374
0.11086, 0.456294, 0.108128
0.12059, 0.456633, 0.104489
0.130292, 0.456828, 0.102405
0.139995, 0.456995, 0.100606
0.149713, 0.457188, 0.0985451
0.159405, 0.457283, 0.0975232
0.169104, 0.457385, 0.0964255
0.17881, 0.457496, 0.0952325
0.188433, 0.457393, 0.0963364
0.198068, 0.457328, 0.0970392
0.207673, 0.457202, 0.0983877
0.217081, 0.456674, 0.104054
0.226504, 0.456221, 0.108902
0.235973, 0.455893, 0.112419
0.245487, 0.455675, 0.114761
0.255046, 0.455555, 0.116051
0.264608, 0.455446, 0.117214
0.274202, 0.455401, 0.117703
0.283817, 0.45539, 0.117819
0.29346, 0.455424, 0.117449
0.303176, 0.455566, 0.115931
0.312907, 0.45572, 0.114275
0.322743, 0.456015, 0.111117
0.33265, 0.45639, 0.107098
0.342637, 0.456849, 0.102174
0.352862, 0.457592, 0.0942063
0.363076, 0.458283, 0.0868039
0.373266, 0.458907, 0.0801096
0.383664, 0.459749, 0.0710859
0.394686, 0.461279, 0.0546837
-0.250288, 0.477674, 0.0192189
-0.239476, 0.475694, 0.0398617
-0.22868, 0.473578, 0.0619273
-0.218237, 0.472039, 0.0779743
-0.208041, 0.470914, 0.0896997
-0.198086, 0.470254, 0.0965915
-0.188287, 0.469912, 0.100156
-0.178543, 0.469681, 0.102559
-0.168839, 0.469533, 0.104108
-0.15919, 0.469529, 0.104141
-0.149547, 0.469547, 0.103962
-0.139868, 0.469442, 0.105052
-0.130195, 0.469345, 0.106063
-0.120539, 0.4693, 0.106531
-0.110884, 0.469247, 0.10709
-0.10123, 0.469193, 0.107647
-0.0915853, 0.469174, 0.10785
-0.0819511, 0.469211, 0.107467
-0.0723263, 0.469317, 0.106355
-0.0627086, 0.46951, 0.104339
-0.0530581, 0.469484, 0.104615
-0.0434016, 0.46938, 0.105702
-0.033744, 0.469202, 0.107551
-0.0240941, 0.469032, 0.109325
-0.0144514, 0.468866, 0.111058
-0.00481558, 0.468715, 0.112632
0.00481415, 0.468576, 0.114088
0.0144384, 0.468444, 0.115463
0.0240592, 0.468354, 0.116401
0.0336772, 0.468273, 0.117239
0.0432917, 0.468192, 0.118093
0.0529026, 0.468108, 0.118966
0.0625189, 0.46809, 0.11915
0.0721454, 0.468143, 0.118596
0.0817767, 0.468212, 0.117877
0.0914114, 0.468283, 0.117138
0.10108, 0.468498, 0.114894
0.110771, 0.46877, 0.112062
0.120479, 0.469065, 0.108987
0.130187, 0.469314, 0.106384
0.139893, 0.469527, 0.104165
0.149606, 0.469731, 0.102037
0.159312, 0.469889, 0.100388
0.169012, 0.470015, 0.0990767
0.178692, 0.470073, 0.0984731
0.188287, 0.469912, 0.100152
0.197925, 0.469871, 0.100583
0.20752, 0.469735, 0.102
0.216996, 0.469354, 0.105969
0.226451, 0.468962, 0.110058
0.235948, 0.468686, 0.112932
0.245477, 0.468492, 0.114962
0.255046, 0.468386, 0.116061
0.264618, 0.468294, 0.117022
0.27423, 0.468277, 0.117206
0.283858, 0.468286, 0.117105
0.293503, 0.468322, 0.116733
0.303219, 0.468466, 0.115229
0.31295, 0.468623, 0.113598
0.322766, 0.468894, 0.110767
0.332681, 0.469289, 0.106651
0.342631, 0.46971, 0.102255
0.352815, 0.47042, 0.0948577
0.363034, 0.471137, 0.0873799
0.373289, 0.471863, 0.0798054
0.383642, 0.472673, 0.0713639
0.39483, 0.474446, 0.052875
-0.250304, 0.490793, 0.0188932
-0.239484, 0.488742, 0.0397053
-0.228684, 0.486561, 0.0618372
-0.21817, 0.484823, 0.0794806
-0.208024, 0.483776, 0.0901089
-0.198072, 0.483103, 0.0969372
-0.188278, 0.482763, 0.100385
-0.178544, 0.482551, 0.10254
-0.168854, 0.482441, 0.103654
-0.159197, 0.482415, 0.103921
-0.149568, 0.482479, 0.10327
-0.139931, 0.482522, 0.102831
-0.13026, 0.482446, 0.103604
-0.1206, 0.482401, 0.104059
-0.110943, 0.482361, 0.104472
-0.101284, 0.482304, 0.105042
-0.0916329, 0.482278, 0.105308
-0.0819855, 0.482268, 0.105415
-0.072356, 0.482373, 0.104343
-0.0627261, 0.482508, 0.102976
-0.0530671, 0.482428, 0.103784
-0.0434058, 0.482286, 0.105227
-0.0337471, 0.482101, 0.107104
-0.0240961, 0.481922, 0.108924
-0.0144525, 0.481747, 0.1107
-0.00481592, 0.48159, 0.112296
0.00481427, 0.481425, 0.113963
0.0144378, 0.481257, 0.115673
0.0240564, 0.481128, 0.116985
0.0336714, 0.48102, 0.118079
0.0432824, 0.480915, 0.119139
0.0528891, 0.48081, 0.120208
0.0625038, 0.480799, 0.120325
0.0721259, 0.480839, 0.119917
0.08175, 0.480883, 0.119473
0.0913774, 0.480934, 0.118952
0.101033, 0.481108, 0.117184
0.110705, 0.481325, 0.114981
0.120392, 0.481569, 0.11251
0.130088, 0.481808, 0.110084
0.13979, 0.482034, 0.107788
0.1495, 0.482257, 0.105528
0.159205, 0.48244, 0.103668
0.168912, 0.482606, 0.101984
0.17857, 0.482622, 0.101822
0.18816, 0.482462, 0.103438
0.197781, 0.482392, 0.104152
0.207387, 0.482294, 0.105145
0.216881, 0.481958, 0.108554
0.226413, 0.481729, 0.110882
0.23594, 0.48151, 0.113109
0.245492, 0.481356, 0.114664
0.255063, 0.481251, 0.11573
0.26463, 0.481145, 0.116805
0.27426, 0.481157, 0.116685
0.283891, 0.481172, 0.116536
0.29354, 0.481213, 0.116124
0.303262, 0.481369, 0.114541
0.313005, 0.481546, 0.112741
0.322813, 0.48181, 0.110056
0.332723, 0.482208, 0.106024
0.342647, 0.482602, 0.102024
0.352777, 0.483255, 0.0953903
0.362997, 0.483996, 0.0878787
0.373272, 0.484768, 0.0800362
0.383657, 0.485642, 0.0711656
0.394589, 0.487147, 0.0558949
-0.260674, 0.504953, 0.0082922
-0.250126, 0.503521, 0.0224438
-0.23956, 0.501935, 0.0381227
-0.228897, 0.500003, 0.0572281
-0.218227, 0.49788, 0.078207
-0.208057, 0.496756, 0.0893197
-0.198109, 0.496078, 0.0960269
-0.188299, 0.495693, 0.0998316
-0.17857, 0.495493, 0.10181
-0.168883, 0.495391, 0.102817
-0.159224, 0.495362, 0.103098
-0.149603, 0.495459, 0.102141
-0.139972, 0.495533, 0.101409
-0.130323, 0.495548, 0.101267
-0.120654, 0.495486, 0.101878
-0.110996, 0.495462, 0.10211
-0.101338, 0.49543, 0.10243
-0.0916815, 0.495402, 0.102709
-0.0820307, 0.495401, 0.102716
-0.0723957, 0.495508, 0.101661
-0.0627524, 0.495583, 0.100922
-0.0530862, 0.495471, 0.102023
-0.0434207, 0.495317, 0.103545
-0.0337581, 0.495119, 0.105502
-0.024103, 0.494916, 0.107512
-0.0144562, 0.494721, 0.109443
-0.00481704, 0.494547, 0.111157
0.00481535, 0.494374, 0.112869
0.014441, 0.494203, 0.114564
0.0240616, 0.494065, 0.115924
0.0336779, 0.493942, 0.117135
0.04329, 0.493826, 0.118289
0.0528974, 0.493709, 0.119441
0.0625102, 0.49367, 0.11983
0.0721252, 0.493657, 0.119961
0.0817403, 0.493648, 0.120051
0.0913614, 0.493672, 0.119807
0.10101, 0.493825, 0.118296
0.110677, 0.494035, 0.116222
0.120353, 0.494249, 0.114104
0.13004, 0.494472, 0.111902
0.139734, 0.494692, 0.109724
0.149432, 0.494892, 0.107752
0.159132, 0.495079, 0.105905
0.16884, 0.495263, 0.104084
0.178484, 0.495252, 0.104188
0.188061, 0.495067, 0.106015
0.197665, 0.494965, 0.107029
0.207276, 0.494892, 0.107749
0.216806, 0.494639, 0.110247
0.226349, 0.494437, 0.112251
0.235951, 0.494374, 0.112868
0.245515, 0.494239, 0.114203
0.255067, 0.494093, 0.115651
0.264633, 0.493982, 0.116745
0.27427, 0.494007, 0.116497
0.28391, 0.494036, 0.116215
0.293577, 0.494107, 0.11551
0.303318, 0.494296, 0.113645
0.313064, 0.494481, 0.111816
0.322865, 0.494738, 0.109268
0.332784, 0.495156, 0.105135
0.342715, 0.495569, 0.101056
0.352827, 0.496213, 0.0946922
0.363028, 0.496945, 0.0874562
0.373309, 0.497745, 0.0795479
0.383713, 0.498664, 0.0704565
0.394574, 0.500119, 0.056077
0.407058, 0.503509, 0.0225649
-0.260379, 0.517483, 0.0139394
-0.250055, 0.516454, 0.0238533
-0.239681, 0.515233, 0.0356121
-0.229202, 0.513673, 0.0506454
-0.218414, 0.51125, 0.0739908
-0.208258, 0.510151, 0.084578
-0.198195, 0.509184, 0.0939007
-0.188391, 0.508816, 0.0974441
-0.178656, 0.508606, 0.0994682
-0.168919, 0.508366, 0.101779
-0.159282, 0.508414, 0.101315
-0.149667, 0.508546, 0.100048
-0.14001, 0.508544, 0.100066
-0.130367, 0.50859, 0.099618
-0.120706, 0.508577, 0.0997491
-0.111043, 0.508543, 0.100073
-0.101387, 0.508544, 0.100068
-0.0917334, 0.508557, 0.0999365
-0.0820806, 0.508578, 0.0997367
-0.0724461, 0.508732, 0.0982513
-0.0627912, 0.508769, 0.0978932
-0.0531189, 0.508654, 0.0990038
-0.0434464, 0.508483, 0.10065
-0.0337767, 0.508259, 0.102811
-0.0241157, 0.508038, 0.104944
-0.0144638, 0.507838, 0.106866
-0.00481952, 0.507654, 0.108638
0.00481774, 0.507466, 0.110448
0.0144482, 0.507289, 0.112153
0.0240737, 0.507154, 0.113459
0.0336943, 0.50702, 0.114753
0.0433092, 0.506878, 0.116117
0.0529187, 0.506737, 0.117473
0.0625337, 0.506683, 0.117994
0.0721504, 0.506656, 0.118254
0.0817665, 0.506632, 0.118485
0.0913868, 0.506636, 0.118451
0.10103, 0.506755, 0.117301
0.110682, 0.506891, 0.115995
0.12034, 0.507032, 0.114637
0.130011, 0.507205, 0.112969
0.139693, 0.507392, 0.111159
0.149385, 0.507586, 0.109291
0.159083, 0.507779, 0.107439
0.168792, 0.507983, 0.105469
0.178434, 0.507974, 0.105556
0.188014, 0.507799, 0.107242
0.197634, 0.507742, 0.107787
0.207256, 0.507697, 0.108225
0.216796, 0.507464, 0.110471
0.226324, 0.507223, 0.112788
0.235927, 0.507164, 0.113365
0.24551, 0.507066, 0.114309
0.255056, 0.506904, 0.115861
0.264626, 0.506799, 0.116873
0.274266, 0.50683, 0.11658
0.283914, 0.506875, 0.116148
0.293597, 0.506977, 0.115163
0.303358, 0.507201, 0.113003
0.31312, 0.507415, 0.110941
0.322921, 0.507677, 0.108415
0.332849, 0.508117, 0.104181
0.342801, 0.508568, 0.0998297
0.352909, 0.50922, 0.0935493
0.36312, 0.509982, 0.0862107
0.373465, 0.510888, 0.0774822
0.383973, 0.511964, 0.0671134
0.395024, 0.513693, 0.0504503
0.407033, 0.516556, 0.0228658
-0.26047, 0.530768, 0.0122027
-0.250035, 0.529485, 0.0242605
-0.239771, 0.528474, 0.0337586
-0.229526, 0.527421, 0.0436525
-0.21892, 0.525408, 0.062573
-0.208502, 0.523679, 0.0788245
-0.198451, 0.522749, 0.0875568
-0.188523, 0.522062, 0.0940123
-0.178762, 0.521793, 0.0965486
-0.169063, 0.521679, 0.0976138
-0.159358, 0.521534, 0.0989814
-0.149726, 0.521625, 0.0981193
-0.140083, 0.52169, 0.0975089
-0.130414, 0.521657, 0.0978198
-0.120764, 0.521699, 0.0974288
-0.111107, 0.521718, 0.0972452
-0.101443, 0.521706, 0.0973587
-0.0917951, 0.521783, 0.0966411
-0.0821456, 0.521867, 0.0958529
-0.0725114, 0.522082, 0.0938306
-0.0628501, 0.522139, 0.0932889
-0.0531715, 0.522048, 0.0941525
-0.0434876, 0.52185, 0.0960093
-0.0338081, 0.521611, 0.0982561
-0.0241378, 0.521378, 0.100447
-0.0144768, 0.521164, 0.102453
-0.00482364, 0.520951, 0.10446
0.00482179, 0.520752, 0.106329
0.0144598, 0.52055, 0.108227
0.0240915, 0.520377, 0.109848
0.0337173, 0.520209, 0.111428
0.043338, 0.520055, 0.112876
0.0529535, 0.519907, 0.114265
0.0625724, 0.519832, 0.114974
0.0721928, 0.519788, 0.115386
0.0818115, 0.519744, 0.115802
0.091432, 0.519718, 0.11604
0.10107, 0.519789, 0.115374
0.110719, 0.519899, 0.114347
0.120374, 0.520016, 0.113242
0.13004, 0.520161, 0.111878
0.139714, 0.520314, 0.110446
0.149397, 0.520481, 0.108876
0.159092, 0.520664, 0.107151
0.168794, 0.520851, 0.105398
0.178436, 0.520841, 0.105493
0.188028, 0.520694, 0.106873
0.197661, 0.520669, 0.107111
0.207283, 0.520619, 0.107577
0.216815, 0.520356, 0.110044
0.226347, 0.520116, 0.112305
0.235932, 0.520012, 0.113278
0.245499, 0.51988, 0.11452
0.255042, 0.519707, 0.116146
0.264633, 0.519644, 0.116741
0.274289, 0.519705, 0.116162
0.283948, 0.519769, 0.11556
0.293648, 0.519901, 0.114322
0.303429, 0.520164, 0.111852
0.313226, 0.520438, 0.109282
0.323074, 0.520776, 0.106101
0.333026, 0.521258, 0.101571
0.343004, 0.521753, 0.0969234
0.353165, 0.52249, 0.0899906
0.363413, 0.523315, 0.0822396
0.373804, 0.524296, 0.0730205
0.384399, 0.525507, 0.0616388
0.395768, 0.527691, 0.0411181
0.40751, 0.530254, 0.0170312
0.641523, 0.528889, 0.0298581
0.6508, 0.528469, 0.0338082
0.660327, 0.528262, 0.0357542
0.669832, 0.528042, 0.037816
0.679266, 0.527775, 0.0403285
0.688913, 0.527678, 0.0412383
0.698632, 0.527638, 0.0416145
0.708574, 0.527766, 0.0404181
0.718526, 0.527897, 0.0391865
-0.260467, 0.543869, 0.0122452
-0.250007, 0.542498, 0.0248156
-0.239886, 0.541783, 0.0313745
-0.229719, 0.540898, 0.0394874
-0.219544, 0.539916, 0.0484953
-0.209044, 0.538005, 0.0660262
-0.198784, 0.536555, 0.0793171
-0.188817, 0.535788, 0.0863528
-0.179, 0.535386, 0.0900383
-0.169267, 0.535207, 0.0916867
-0.159559, 0.535086, 0.0927949
-0.149849, 0.534945, 0.0940819
-0.140186, 0.534964, 0.0939136
-0.130512, 0.534937, 0.0941591
-0.120856, 0.534991, 0.0936608
-0.111186, 0.534981, 0.0937552
-0.101503, 0.534906, 0.0944405
-0.0918563, 0.535023, 0.0933709
-0.0822136, 0.535195, 0.0917945
-0.0725931, 0.535575, 0.0883064
-0.0629262, 0.535679, 0.0873494
-0.0532383, 0.53561, 0.0879869
-0.0435452, 0.535445, 0.0895033
-0.0338541, 0.535217, 0.0915928
-0.0241719, 0.535004, 0.0935411
-0.0144975, 0.534794, 0.095468
-0.00483055, 0.534579, 0.0974441
0.00482834, 0.534335, 0.0996833
0.014478, 0.534076, 0.102057
0.0241192, 0.53384, 0.104223
0.0337538, 0.533631, 0.106133
0.0433809, 0.533424, 0.108035
0.0530029, 0.533242, 0.109704
0.0626279, 0.53314, 0.11064
0.0722512, 0.533053, 0.111434
0.0818722, 0.532972, 0.112179
0.091497, 0.53293, 0.112564
0.101137, 0.532976, 0.112144
0.110782, 0.533039, 0.111563
0.120435, 0.533124, 0.110785
0.130097, 0.533235, 0.109764
0.139769, 0.533372, 0.108509
0.149451, 0.533524, 0.107115
0.159142, 0.533688, 0.105612
0.168848, 0.53388, 0.103852
0.178485, 0.533848, 0.104146
0.188085, 0.533711, 0.105399
0.197729, 0.533707, 0.105438
0.207336, 0.533608, 0.106343
0.216854, 0.5333, 0.109169
0.226396, 0.533075, 0.111233
0.235974, 0.532947, 0.112405
0.245533, 0.532791, 0.113841
0.255112, 0.532686, 0.114799
0.26475, 0.53271, 0.114581
0.274418, 0.532789, 0.113862
0.284094, 0.532877, 0.113054
0.293819, 0.533048, 0.111483
0.303612, 0.533329, 0.108905
0.313418, 0.533614, 0.106294
0.323285, 0.533983, 0.102904
0.333256, 0.534498, 0.0981865
0.343279, 0.535064, 0.0929952
0.353489, 0.535883, 0.0854845
0.363798, 0.536804, 0.077035
0.374282, 0.537929, 0.066721
0.385122, 0.539495, 0.0523572
0.396748, 0.542059, 0.0288448
0.408172, 0.544229, 0.00894165
0.612163, 0.541968, 0.0296779
0.621462, 0.541536, 0.0336409
0.630634, 0.541009, 0.038475
0.639998, 0.54066, 0.0416756
0.649321, 0.540287, 0.0450916
0.658586, 0.539878, 0.0488467
0.668103, 0.539684, 0.0506263
0.677761, 0.539608, 0.051322
0.687537, 0.539627, 0.0511451
0.697392, 0.539707, 0.050415
0.707487, 0.539967, 0.048028
0.717758, 0.540353, 0.0444894
0.728498, 0.541077, 0.0378499
-0.260234, 0.556475, 0.0167179
-0.250034, 0.555631, 0.0242739
-0.239955, 0.554998, 0.0299425
-0.229905, 0.55438, 0.0354724
-0.219797, 0.553563, 0.0427952
-0.209727, 0.55277, 0.0498934
-0.199558, 0.551622, 0.0601707
-0.189469, 0.550594, 0.0693755
-0.179472, 0.549734, 0.0770769
-0.169624, 0.549259, 0.0813355
-0.159859, 0.54901, 0.0835657
-0.150157, 0.54896, 0.0840163
-0.140439, 0.548841, 0.0850754
-0.130722, 0.548709, 0.086257
-0.120974, 0.548414, 0.0889058
-0.111276, 0.548315, 0.0897851
-0.101596, 0.548293, 0.0899835
-0.0919411, 0.54842, 0.0888457
-0.0822954, 0.548636, 0.0869155
-0.0726733, 0.549087, 0.0828762
-0.06301, 0.549317, 0.080812
-0.0533162, 0.549318, 0.0808029
-0.0436154, 0.54923, 0.081593
-0.0339143, 0.549088, 0.0828691
-0.0242147, 0.548866, 0.0848546
-0.0145228, 0.548636, 0.0869145
-0.00483887, 0.548403, 0.0890021
0.00483669, 0.548156, 0.091208
0.0145034, 0.547904, 0.0934711
0.0241602, 0.547632, 0.0959039
0.0338086, 0.547377, 0.098186
0.0434487, 0.547132, 0.100386
0.0530809, 0.546894, 0.102514
0.06271, 0.546703, 0.104227
0.0723349, 0.54653, 0.105774
0.0819586, 0.546391, 0.107018
0.0915845, 0.546293, 0.107892
0.101229, 0.546317, 0.10768
0.110876, 0.546345, 0.107428
0.120524, 0.546374, 0.107174
0.130181, 0.546439, 0.106588
0.139852, 0.546549, 0.105602
0.14953, 0.546669, 0.104527
0.159218, 0.546808, 0.103288
0.168914, 0.54696, 0.101918
0.178555, 0.546925, 0.102239
0.18816, 0.546791, 0.103437
0.197813, 0.5468, 0.103353
0.207388, 0.546605, 0.105104
0.216906, 0.54628, 0.108008
0.226459, 0.54607, 0.109893
0.236033, 0.545927, 0.111174
0.245631, 0.545847, 0.111887
0.255236, 0.545788, 0.11242
0.264898, 0.54585, 0.111863
0.274581, 0.54595, 0.110968
0.284269, 0.546053, 0.110046
0.294025, 0.546276, 0.108047
0.303847, 0.546603, 0.105118
0.313684, 0.546936, 0.102141
0.323607, 0.547394, 0.098033
0.333606, 0.547951, 0.0930448
0.343712, 0.548648, 0.0868044
0.35399, 0.549573, 0.0785213
0.364397, 0.550644, 0.0689278
0.374999, 0.551946, 0.0572748
0.386041, 0.553814, 0.0405483
0.397428, 0.556071, 0.0203285
0.40794, 0.557027, 0.011775
0.418024, 0.557365, 0.0087471
0.428247, 0.557869, 0.00423002
0.595453, 0.557724, 0.0055275
0.602397, 0.555054, 0.0294385
0.611145, 0.554105, 0.0379415
0.619903, 0.553194, 0.0460973
0.629148, 0.55274, 0.0501609
0.638532, 0.55242, 0.0530286
0.648077, 0.552246, 0.0545831
0.657704, 0.552146, 0.0554795
0.667399, 0.552106, 0.055841
0.677179, 0.552136, 0.0555696
0.687009, 0.552206, 0.0549455
0.696855, 0.552286, 0.0542316
0.706752, 0.552404, 0.0531697
0.716684, 0.552545, 0.0519052
0.726857, 0.552867, 0.0490274
0.737616, 0.553619, 0.0422902
-0.260486, 0.57012, 0.0118933
-0.250153, 0.568975, 0.0219078
-0.240029, 0.568231, 0.0284138
-0.230011, 0.567686, 0.0331879
-0.219922, 0.566911, 0.039969
-0.209945, 0.566363, 0.0447655
-0.199974, 0.565779, 0.0498672
-0.190028, 0.565211, 0.054842
-0.180138, 0.564756, 0.0588188
-0.170247, 0.564248, 0.0632644
-0.160396, 0.563815, 0.0670514
-0.150589, 0.563494, 0.0698624
-0.140868, 0.56347, 0.0700707
-0.131123, 0.563342, 0.0711918
-0.121347, 0.563049, 0.0737529
-0.111512, 0.562408, 0.0793662
-0.101741, 0.562, 0.082931
-0.0920415, 0.561938, 0.0834804
-0.0823821, 0.562137, 0.081738
-0.0727515, 0.562612, 0.0775843
-0.0630847, 0.56291, 0.0749741
-0.0533876, 0.562997, 0.0742121
-0.0436815, 0.563006, 0.0741377
-0.0339682, 0.562902, 0.0750408
-0.0242584, 0.562795, 0.0759778
-0.014551, 0.562635, 0.0773807
-0.00484869, 0.562446, 0.0790358
0.00484694, 0.562243, 0.0808086
0.0145345, 0.561998, 0.0829492
0.0242114, 0.561706, 0.0855107
0.0338777, 0.561402, 0.0881653
0.0435334, 0.561096, 0.0908403
0.053179, 0.560798, 0.0934558
0.0628206, 0.560553, 0.0955954
0.0724556, 0.560323, 0.0976067
0.0820868, 0.560122, 0.0993657
0.0917175, 0.55996, 0.100785
0.101363, 0.559908, 0.101241
0.111007, 0.55986, 0.101658
0.120656, 0.559842, 0.101813
0.13031, 0.559851, 0.101737
0.13997, 0.559882, 0.101468
0.149646, 0.559965, 0.10074
0.159325, 0.560051, 0.0999899
0.169011, 0.560149, 0.0991273
0.178668, 0.560149, 0.0991268
0.188291, 0.560044, 0.100044
0.197931, 0.559999, 0.10044
0.207446, 0.559621, 0.103752
0.21696, 0.559276, 0.106769
0.226521, 0.559073, 0.108544
0.236179, 0.559119, 0.108142
0.245819, 0.559118, 0.108146
0.255439, 0.559074, 0.108533
0.265121, 0.559165, 0.107736
0.274821, 0.559285, 0.106685
0.284541, 0.559437, 0.105355
0.294345, 0.559738, 0.10273
0.304177, 0.560071, 0.0998111
0.31402, 0.560405, 0.0968881
0.323982, 0.560924, 0.0923495
0.33401, 0.561524, 0.0871034
0.344226, 0.562398, 0.0794559
0.354582, 0.563445, 0.0702887
0.365154, 0.564771, 0.0586905
0.375858, 0.566228, 0.0459414
0.386959, 0.568193, 0.0287514
0.397843, 0.569751, 0.0151176
0.407736, 0.569848, 0.0142722
0.417611, 0.569916, 0.0136733
0.427687, 0.570249, 0.0107651
0.437867, 0.570703, 0.0067873
0.583736, 0.56902, 0.0215187
0.592659, 0.568169, 0.0289574
0.600879, 0.566683, 0.041965
0.60989, 0.565978, 0.0481286
0.619231, 0.565597, 0.0514631
0.628877, 0.565502, 0.0522933
0.638635, 0.565509, 0.0522351
0.648423, 0.565542, 0.0519443
0.658229, 0.565589, 0.0515332
0.668031, 0.565632, 0.0511541
0.677796, 0.565642, 0.0510654
0.687625, 0.565706, 0.0505137
0.697477, 0.565786, 0.0498109
0.707346, 0.565877, 0.0490184
0.717471, 0.566167, 0.046474
0.727465, 0.566349, 0.0448885
0.737489, 0.566548, 0.0431452
0.748148, 0.567224, 0.0372324
0.758692, 0.567795, 0.0322285
0.768288, 0.567652, 0.0334802
-0.369403, 0.584478, 0.00118732
-0.35879, 0.583239, 0.0117817
-0.349233, 0.583694, 0.00788593
-0.250304, 0.582406, 0.0189023
-0.24013, 0.581539, 0.0263162
-0.230064, 0.580872, 0.0320268
-0.220032, 0.580232, 0.0375013
-0.209985, 0.579493, 0.0438147
-0.200059, 0.579032, 0.0477581
-0.190198, 0.578721, 0.0504236
-0.180364, 0.578465, 0.0526104
-0.170544, 0.578226, 0.0546513
-0.160737, 0.578003, 0.0565662
-0.150935, 0.577774, 0.0585194
-0.141171, 0.577667, 0.0594368
-0.131426, 0.577626, 0.0597882
-0.121681, 0.577577, 0.0602069
-0.111903, 0.577355, 0.0621028
-0.102087, 0.576873, 0.0662293
-0.0922405, 0.576098, 0.0728531
-0.0824843, 0.575773, 0.0756354
-0.0728232, 0.576112, 0.0727358
-0.0631557, 0.576498, 0.0694304
-0.0534522, 0.576636, 0.0682545
-0.0437405, 0.576725, 0.0674896
-0.0340174, 0.576676, 0.067915
-0.0242964, 0.576635, 0.0682611
-0.0145779, 0.576633, 0.0682783
-0.00485829, 0.576515, 0.0692892
0.00485694, 0.576355, 0.0706601
0.0145668, 0.576194, 0.0720296
0.0242693, 0.575993, 0.0737534
0.0339567, 0.575647, 0.0767126
0.043632, 0.575295, 0.079721
0.0532976, 0.574968, 0.0825191
0.0629561, 0.574676, 0.0850158
0.0726067, 0.574399, 0.0873818
0.0822483, 0.574126, 0.0897245
0.0918846, 0.573876, 0.0918598
0.101537, 0.573762, 0.0928326
0.111192, 0.573684, 0.0934987
0.120845, 0.573613, 0.0941081
0.130506, 0.573582, 0.0943699
0.140166, 0.573555, 0.0946054
0.149824, 0.573522, 0.0948896
0.159488, 0.573511, 0.0949769
0.169154, 0.573512, 0.0949726
0.1788, 0.57345, 0.0955024
0.188432, 0.573349, 0.0963697
0.198003, 0.57308, 0.0986629
0.207471, 0.572555, 0.103155
0.217017, 0.572281, 0.105502
0.226603, 0.572132, 0.106778
0.236302, 0.572269, 0.105599
0.246006, 0.572407, 0.104425
