-0.104722, 0.152927, -0.0611024
-0.0243002, 0.149041, 0.0674963
-0.0145588, 0.148823, 0.074717
-0.00485006, 0.148735, 0.077642
0.00485183, 0.148789, 0.0758471
0.0145658, 0.148895, 0.0723433
0.0243049, 0.14907, 0.0665417
0.034593, 0.15155, -0.0155363
0.0446884, 0.152271, -0.0394044
0.0543244, 0.15145, -0.0122185
0.0642422, 0.151546, -0.0153866
0.189, 0.148616, 0.0815802
0.198449, 0.148433, 0.0876122
0.208098, 0.148411, 0.0883436
0.217861, 0.148468, 0.0864501
0.227743, 0.148598, 0.082159
0.237619, 0.148714, 0.0783267
-0.224777, 0.166501, -0.0695128
-0.214542, 0.166311, -0.0637369
-0.204443, 0.166214, -0.0607586
-0.194481, 0.166223, -0.0610404
-0.18458, 0.166288, -0.0630183
-0.174625, 0.166309, -0.063664
-0.164635, 0.166298, -0.0633378
-0.154578, 0.166213, -0.0607395
-0.14448, 0.166069, -0.0563507
-0.134474, 0.166017, -0.0547719
-0.124516, 0.166022, -0.0549192
-0.114554, 0.16602, -0.0548749
-0.104607, 0.166043, -0.0555749
-0.0339969, 0.16189, 0.0708852
-0.0242604, 0.161736, 0.0755601
-0.0145504, 0.161671, 0.0775614
-0.004852, 0.161733, 0.0756731
0.00485571, 0.161856, 0.071907
0.0145814, 0.162015, 0.0670815
0.0247463, 0.164975, -0.0230532
0.0347938, 0.165685, -0.0446596
0.044724, 0.165644, -0.0434222
0.0546879, 0.165721, -0.0457602
0.0646931, 0.16588, -0.0505924
0.179442, 0.161659, 0.0779071
0.188766, 0.161338, 0.0876846
0.198322, 0.161238, 0.0907488
0.208025, 0.16126, 0.0900803
0.21794, 0.161437, 0.0846872
0.227778, 0.161544, 0.0814061
-0.235, 0.18, -0.0745535
-0.22468, 0.179744, -0.0673351
-0.214465, 0.179552, -0.0619211
-0.204487, 0.179549, -0.0618405
-0.194595, 0.179626, -0.0640225
-0.184747, 0.179753, -0.0676031
-0.174754, 0.179747, -0.0674224
-0.164793, 0.179774, -0.0681906
-0.154695, 0.179646, -0.0645642
-0.144618, 0.179526, -0.0611873
-0.134593, 0.179457, -0.059237
-0.124566, 0.179375, -0.0569448
-0.114608, 0.179386, -0.0572419
-0.10466, 0.179417, -0.0581121
-0.0534328, 0.174871, 0.070045
-0.0436835, 0.174734, 0.0739136
-0.0339534, 0.174618, 0.0771875
-0.0242563, 0.174646, 0.0763979
-0.0145667, 0.1748, 0.0720482
-0.00485939, 0.174937, 0.0681715
0.00486137, 0.175009, 0.0661602
0.0249153, 0.17939, -0.0573683
0.0348497, 0.179227, -0.0527573
0.044781, 0.179124, -0.0498486
0.0547646, 0.17923, -0.0528336
0.064774, 0.179374, -0.0569053
0.188867, 0.174338, 0.0850587
0.198347, 0.174158, 0.0901427
0.207981, 0.174124, 0.0911036
0.217708, 0.174166, 0.0899143
0.227575, 0.174313, 0.0857863
0.237613, 0.174573, 0.078454
-0.24494, 0.193286, -0.0733047
-0.234777, 0.19315, -0.0697451
-0.22457, 0.192964, -0.0648456
-0.214591, 0.192965, -0.0648952
-0.204715, 0.193064, -0.0674906
-0.194818, 0.193153, -0.0698228
-0.14481, 0.19308, -0.0679159
-0.134931, 0.193235, -0.0719619
-0.124781, 0.192994, -0.0656443
-0.114759, 0.192929, -0.0639272
-0.0728714, 0.187846, 0.0694757
-0.063092, 0.187658, 0.0744076
-0.0533556, 0.187553, 0.077168
-0.0436526, 0.187544, 0.077395
-0.0339771, 0.187683, 0.0737562
-0.0242893, 0.187837, 0.0697088
-0.0145784, 0.187899, 0.0680795
0.0349015, 0.192789, -0.0602717
0.0448249, 0.192581, -0.0547996
0.0547908, 0.192598, -0.055253
0.0648046, 0.192752, -0.0592947
0.188989, 0.187374, 0.0818753
0.198592, 0.18729, 0.0840635
0.208081, 0.187111, 0.0887632
0.217713, 0.187072, 0.0897856
0.227488, 0.187153, 0.0876598
0.237488, 0.187406, 0.0810366
0.247584, 0.187711, 0.0730329
-0.2549, 0.206586, -0.0725598
-0.244765, 0.206468, -0.069685
-0.234623, 0.206335, -0.0664077
-0.224695, 0.206387, -0.0676818
-0.214821, 0.206494, -0.0703173
-0.204834, 0.206499, -0.0704446
-0.102082, 0.200922, 0.0664949
-0.0922554, 0.200696, 0.072053
-0.0825308, 0.200663, 0.0728602
-0.0727622, 0.2005, 0.0768638
-0.0630333, 0.200413, 0.0789928
-0.0533607, 0.200507, 0.0766902
-0.0437023, 0.200707, 0.0717936
-0.0340085, 0.200812, 0.0692081
-0.0243041, 0.200914, 0.0666895
0.0349189, 0.206188, -0.062788
0.0448413, 0.205938, -0.0566549
0.054781, 0.205844, -0.0543532
0.0647553, 0.205888, -0.0554447
0.0747668, 0.206024, -0.0587697
0.0848368, 0.20627, -0.0648122
0.20843, 0.200351, 0.0805244
0.217932, 0.200174, 0.0848594
0.227597, 0.200157, 0.0852995
0.237421, 0.200273, 0.0824342
0.247454, 0.200551, 0.0756154
0.25744, 0.200771, 0.0702181
-0.264944, 0.219954, -0.0734844
-0.254731, 0.219768, -0.069201
-0.244659, 0.219694, -0.0674853
-0.234777, 0.219791, -0.0697279
-0.22488, 0.219883, -0.0718551
-0.214874, 0.219871, -0.0715709
-0.111701, 0.213689, 0.0710144
-0.101922, 0.213551, 0.074213
-0.0921205, 0.213332, 0.0792589
-0.0823876, 0.213239, 0.0814071
-0.072701, 0.213256, 0.0810041
-0.0630677, 0.21346, 0.0763016
-0.0534165, 0.213666, 0.0715485
-0.0437202, 0.213743, 0.0697746
0.0349396, 0.21962, -0.0657859
0.0448416, 0.219225, -0.0566835
0.0547676, 0.219071, -0.0531168
0.0647046, 0.219, -0.0514884
0.0746714, 0.219036, -0.0523186
0.0846666, 0.219137, -0.0546484
0.0946925, 0.219288, -0.0581264
0.218319, 0.213468, 0.076118
0.227874, 0.213329, 0.0793204
0.237485, 0.213252, 0.0810943
0.247282, 0.213341, 0.0790424
0.25731, 0.213616, 0.0727105
0.26713, 0.213704, 0.0706763
-0.284963, 0.233303, -0.0738916
-0.274832, 0.233191, -0.0714478
-0.264657, 0.233031, -0.067977
-0.254655, 0.233018, -0.067688
-0.244819, 0.233161, -0.0708022
-0.234878, 0.233212, -0.0719209
-0.111703, 0.226644, 0.0709391
-0.101786, 0.22619, 0.0807943
-0.0919964, 0.225956, 0.0858898
-0.0823306, 0.226006, 0.0848088
-0.0727445, 0.226316, 0.0780625
-0.0631456, 0.226677, 0.070219
0.0448929, 0.232778, -0.0624661
0.0548078, 0.232518, -0.0568209
0.0647331, 0.232375, -0.0537143
0.0746628, 0.232284, -0.051734
0.0846253, 0.232305, -0.0521841
0.0946275, 0.232418, -0.0546551
0.104644, 0.232542, -0.0573473
0.11462, 0.232563, -0.0577893
0.228091, 0.226473, 0.0746369
0.237711, 0.226392, 0.0764132
0.247269, 0.22626, 0.0792885
0.257059, 0.226341, 0.0775161
0.267107, 0.226636, 0.071105
0.276918, 0.226717, 0.0693517
-0.294808, 0.246506, -0.0712485
-0.284567, 0.246292, -0.0668426
-0.274513, 0.246229, -0.0655575
-0.264593, 0.246288, -0.0667615
-0.254855, 0.246526, -0.07166
-0.244965, 0.246632, -0.0738311
-0.111618, 0.239413, 0.0746808
-0.101722, 0.238967, 0.0838585
-0.091969, 0.238797, 0.0873528
-0.0823422, 0.238954, 0.0841184
-0.0728006, 0.239433, 0.0742631
0.0549189, 0.246303, -0.06707
0.0648074, 0.245936, -0.0595164
0.0747501, 0.245845, -0.0576391
0.0846568, 0.245671, -0.0540667
0.0946026, 0.245635, -0.0533237
0.104591, 0.245706, -0.0547833
0.114576, 0.245758, -0.0558662
0.124576, 0.245831, -0.0573525
0.23788, 0.239498, 0.0729294
0.247456, 0.239369, 0.0755782
0.257007, 0.239227, 0.0785041
0.266827, 0.239335, 0.076272
0.276894, 0.239651, 0.0697813
0.286881, 0.239878, 0.0651083
-0.304837, 0.259861, -0.0718369
-0.294535, 0.25959, -0.0665545
-0.284286, 0.259349, -0.0618367
-0.274315, 0.259353, -0.0619149
-0.264603, 0.25961, -0.0669489
-0.254935, 0.259934, -0.0732627
-0.121472, 0.252663, 0.0686574
-0.111553, 0.252207, 0.0775442
-0.101695, 0.251816, 0.0851727
-0.091986, 0.251751, 0.0864472
-0.0823986, 0.252043, 0.080749
-0.072839, 0.252508, 0.0716667
0.084752, 0.259242, -0.0597491
0.094672, 0.259102, -0.0570316
0.10457, 0.258934, -0.0537529
0.114528, 0.258933, -0.05373
0.12452, 0.259002, -0.0550675
0.134491, 0.25902, -0.0554223
0.14451, 0.259122, -0.0574198
0.247608, 0.252464, 0.0725422
0.257182, 0.252329, 0.0751591
0.266744, 0.252195, 0.0777869
0.276594, 0.252331, 0.0751286
0.28668, 0.252667, 0.0685658
0.296574, 0.252818, 0.0656319
-0.304904, 0.273247, -0.0729551
-0.29463, 0.27299, -0.0681863
-0.284273, 0.272636, -0.0616078
-0.274166, 0.272504, -0.059164
-0.26426, 0.27257, -0.0603843
-0.254447, 0.272741, -0.0635524
-0.244547, 0.272828, -0.065166
-0.235016, 0.273352, -0.0749021
-0.121342, 0.265335, 0.0739326
-0.111489, 0.264987, 0.0803928
-0.101687, 0.264709, 0.0855689
-0.0920136, 0.264741, 0.08497
-0.0824321, 0.265076, 0.0787525
-0.072919, 0.265749, 0.0662508
0.104676, 0.272489, -0.0588822
0.114539, 0.272236, -0.0541902
0.124454, 0.272139, -0.0523758
0.134443, 0.272205, -0.0536013
0.144417, 0.272234, -0.0541511
0.154351, 0.272189, -0.0533113
0.164328, 0.27222, -0.0538864
0.257493, 0.26559, 0.0692067
0.266896, 0.265278, 0.0749979
0.276478, 0.26516, 0.0771899
0.286333, 0.265302, 0.0745435
0.296396, 0.265622, 0.0686049
0.306309, 0.265792, 0.0654502
0.316154, 0.265893, 0.0635748
-0.294831, 0.286502, -0.0716453
-0.284607, 0.286271, -0.0675521
-0.274339, 0.285977, -0.0623527
-0.264294, 0.285903, -0.0610409
-0.254302, 0.285882, -0.0606594
-0.244367, 0.285926, -0.061439
-0.234483, 0.286036, -0.0633869
-0.224744, 0.286341, -0.0687866
-0.131035, 0.278247, 0.0744829
-0.121195, 0.27794, 0.079927
-0.111403, 0.2777, 0.0841651
-0.10165, 0.277519, 0.0873747
-0.0919922, 0.27759, 0.0861163
-0.0824363, 0.27802, 0.0785027
0.11463, 0.285746, -0.0582485
0.124539, 0.28561, -0.0558405
0.134393, 0.285378, -0.0517335
0.144344, 0.285369, -0.0515823
0.15435, 0.285465, -0.0532875
0.164284, 0.285422, -0.0525265
0.174248, 0.285434, -0.0527301
0.184176, 0.28539, -0.0519552
0.267172, 0.278507, 0.0698929
0.276569, 0.278187, 0.0755615
0.28612, 0.278038, 0.078196
0.295947, 0.278158, 0.0760694
0.305972, 0.278451, 0.070888
0.316005, 0.278733, 0.0658922
0.325922, 0.278898, 0.0629606
-0.284889, 0.299883, -0.0725737
-0.274732, 0.299707, -0.0696025
-0.264534, 0.299473, -0.0656328
-0.254329, 0.29921, -0.0611911
-0.244253, 0.299086, -0.0590897
-0.234291, 0.299095, -0.0592365
-0.224398, 0.299198, -0.0609803
-0.214562, 0.299389, -0.0642123
-0.204754, 0.299639, -0.0684533
-0.130889, 0.290865, 0.079968
-0.12106, 0.290543, 0.0854092
-0.111321, 0.290402, 0.0877953
-0.101612, 0.290319, 0.0891986
-0.0919759, 0.29045, 0.0869846
-0.0824449, 0.290982, 0.0779853
0.134509, 0.298909, -0.0561032
0.144346, 0.298647, -0.0516615
0.154239, 0.298528, -0.0496473
0.164206, 0.298555, -0.050118
0.174158, 0.298556, -0.0501256
0.184071, 0.298494, -0.0490708
0.194048, 0.298535, -0.0497775
0.203974, 0.298499, -0.0491629
0.276771, 0.291338, 0.0719628
0.286061, 0.29091, 0.0792122
0.295644, 0.290797, 0.081109
0.305602, 0.291049, 0.0768499
0.315801, 0.291508, 0.0690894
0.325828, 0.291786, 0.0643868
-0.264804, 0.313102, -0.0708032
-0.254533, 0.312759, -0.0652571
-0.244291, 0.312427, -0.0598688
-0.2342, 0.312266, -0.0572667
-0.224221, 0.312249, -0.056993
-0.214294, 0.312304, -0.0578785
-0.204379, 0.312384, -0.0591764
-0.194636, 0.312749, -0.0650873
-0.184691, 0.31281, -0.066083
-0.140591, 0.303805, 0.0797586
-0.130649, 0.303234, 0.0890145
-0.120957, 0.303198, 0.0895953
-0.111232, 0.303068, 0.0916953
-0.101567, 0.30309, 0.0913396
-0.0919656, 0.303325, 0.0875325
-0.0824612, 0.303975, 0.0770154
0.144512, 0.312279, -0.0574775
0.154281, 0.31188, -0.0510163
0.16409, 0.311605, -0.0465541
0.174017, 0.311573, -0.0460415
0.183964, 0.311579, -0.0461411
0.193921, 0.311599, -0.0464716
0.203886, 0.31163, -0.0469718
0.213924, 0.311765, -0.0491533
0.267223, 0.304472, 0.0689626
0.276635, 0.304137, 0.0743861
0.285947, 0.303718, 0.0811763
0.295635, 0.303712, 0.0812616
0.305591, 0.303974, 0.0770178
0.315714, 0.304381, 0.0704341
0.32568, 0.304616, 0.0666203
-0.254731, 0.326322, -0.0691915
-0.244414, 0.325885, -0.062417
-0.234202, 0.325557, -0.0573134
-0.224126, 0.325397, -0.0548306
-0.214125, 0.325337, -0.0538945
-0.204163, 0.325334, -0.053843
-0.194221, 0.325362, -0.0542884
-0.184341, 0.325504, -0.0564866
-0.174518, 0.325767, -0.0605831
-0.164792, 0.326256, -0.0681663
-0.150273, 0.316705, 0.0802031
-0.140344, 0.316178, 0.088377
-0.130522, 0.31583, 0.0937896
-0.120867, 0.315866, 0.0932341
-0.111167, 0.315777, 0.0946045
-0.101539, 0.315898, 0.0927329
-0.0919595, 0.316212, 0.0878611
-0.0824768, 0.31697, 0.0760856
0.154379, 0.325358, -0.0542164
0.164118, 0.32492, -0.0474129
0.173909, 0.324629, -0.0429001
0.183873, 0.324677, -0.0436444
0.193845, 0.324731, -0.0444856
0.203797, 0.324749, -0.0447693
0.21377, 0.324798, -0.0455289
0.257294, 0.317168, 0.0730076
0.26679, 0.316914, 0.0769515
0.276275, 0.316666, 0.080801
0.285951, 0.316647, 0.0811033
0.29583, 0.316845, 0.0780144
0.305782, 0.317107, 0.0739479
0.315707, 0.317326, 0.0705519
0.325616, 0.317516, 0.0675941
-0.244585, 0.339424, -0.0659509
-0.234289, 0.338972, -0.059207
-0.224116, 0.338663, -0.0546045
-0.214045, 0.33849, -0.052021
-0.204029, 0.338389, -0.0505114
-0.194035, 0.338318, -0.0494432
-0.18405, 0.338254, -0.0484967
-0.17409, 0.338232, -0.0481653
-0.164127, 0.338201, -0.0477061
-0.151168, 0.331595, 0.0508938
-0.140157, 0.328644, 0.0949378
-0.130431, 0.328494, 0.0971832
-0.120792, 0.328554, 0.0962834
-0.111118, 0.328524, 0.0967298
-0.101511, 0.328703, 0.0940642
-0.0919653, 0.329139, 0.087553
-0.0824759, 0.329904, 0.0761385
0.164215, 0.338383, -0.0504236
0.173918, 0.337897, -0.0431662
0.183878, 0.337938, -0.0437779
0.193896, 0.338074, -0.045814
0.203881, 0.338144, -0.0468569
0.213908, 0.338273, -0.0487761
0.237902, 0.330149, 0.0724745
0.247496, 0.329995, 0.0747709
0.256782, 0.329456, 0.0828128
0.266316, 0.329264, 0.0856853
0.276035, 0.329305, 0.0850725
0.28593, 0.329546, 0.0814705
0.296014, 0.329983, 0.0749602
0.306036, 0.330324, 0.069859
0.315944, 0.330526, 0.0668416
-0.234568, 0.352684, -0.065228
-0.224248, 0.352152, -0.0575829
-0.214078, 0.351817, -0.0527797
-0.20398, 0.351575, -0.049294
-0.193918, 0.351374, -0.0464067
-0.183874, 0.351183, -0.0436687
-0.173831, 0.350974, -0.0406642
-0.161898, 0.346691, 0.0208402
-0.149917, 0.341746, 0.0918593
-0.140061, 0.341299, 0.0982838
-0.130371, 0.341218, 0.0994492
-0.120741, 0.341293, 0.0983677
-0.11108, 0.341288, 0.0984426
-0.101493, 0.341533, 0.0949202
-0.0919733, 0.342076, 0.0871258
-0.082446, 0.342717, 0.0779209
0.16427, 0.35177, -0.0520973
0.174011, 0.351336, -0.0458732
0.183978, 0.351381, -0.0465102
0.194014, 0.351547, -0.0489035
0.204002, 0.351612, -0.0498371
0.214321, 0.352218, -0.0585356
0.228018, 0.342836, 0.0762086
0.237373, 0.342334, 0.0834165
0.246796, 0.341965, 0.0887175
0.256344, 0.341792, 0.0911975
0.266022, 0.341798, 0.0911222
0.275832, 0.341967, 0.088697
0.285835, 0.342356, 0.0831103
0.296104, 0.343027, 0.0734644
0.306031, 0.343272, 0.0699425
-0.235061, 0.366761, -0.075861
-0.224711, 0.366195, -0.068028
-0.214281, 0.36544, -0.0575762
-0.204034, 0.364938, -0.0506334
-0.193807, 0.364424, -0.0435185
-0.183646, 0.363984, -0.0374222
-0.173558, 0.363646, -0.0327482
-0.160697, 0.357105, 0.0577722
-0.149777, 0.354311, 0.0964522
-0.139992, 0.354002, 0.100728
-0.130327, 0.353974, 0.101108
-0.120693, 0.354031, 0.100317
-0.111043, 0.354049, 0.100066
-0.101474, 0.354354, 0.09585
-0.0919713, 0.354977, 0.0872293
-0.0824909, 0.355843, 0.075243
0.154659, 0.365861, -0.0634046
0.164216, 0.364924, -0.0504365
0.174004, 0.364579, -0.0456619
0.18399, 0.364664, -0.0468364
0.194034, 0.36485, -0.0494113
0.204102, 0.36506, -0.0523133
0.208772, 0.356045, 0.0724459
0.218095, 0.355414, 0.0811772
0.22742, 0.354839, 0.0891352
0.236874, 0.354505, 0.0937634
0.246447, 0.354368, 0.0956578
0.25614, 0.354407, 0.0951133
0.265881, 0.354509, 0.0937114
0.275762, 0.354782, 0.0899334
0.286107, 0.355614, 0.0784183
0.296347, 0.356264, 0.0694189
-0.224961, 0.379933, -0.0736637
-0.214649, 0.379379, -0.0662608
-0.203995, 0.378136, -0.049664
-0.193458, 0.376995, -0.0344234
-0.183205, 0.376312, -0.0253081
-0.172248, 0.374025, 0.00524044
-0.159608, 0.367581, 0.0912881
-0.149706, 0.367022, 0.098762
-0.139953, 0.366774, 0.102067
-0.130291, 0.366745, 0.102463
-0.120656, 0.366794, 0.101808
-0.111015, 0.366831, 0.101305
-0.10146, 0.367189, 0.0965333
-0.0919873, 0.367949, 0.0863762
-0.0830485, 0.371276, 0.0419497
-0.0737953, 0.373896, 0.00696325
-0.0639561, 0.373897, 0.00694561
-0.054065, 0.37354, 0.0117164
-0.0441895, 0.373155, 0.0168552
-0.0343391, 0.372824, 0.021275
-0.0245161, 0.372645, 0.0236659
-0.0147052, 0.372532, 0.0251827
-0.00490224, 0.372569, 0.0246825
0.00490519, 0.372793, 0.0216932
0.0147183, 0.372863, 0.0207629
0.0245065, 0.372499, 0.0256128
0.0343686, 0.373145, 0.0169902
0.0442571, 0.373726, 0.00922918
0.154572, 0.378951, -0.0605445
0.164114, 0.377959, -0.047296
0.173957, 0.377734, -0.0442967
0.183981, 0.377907, -0.0466042
0.1928, 0.375713, -0.0172968
0.200006, 0.370743, 0.0490618
0.208129, 0.367856, 0.0876231
0.217563, 0.367439, 0.0931859
0.227044, 0.367136, 0.0972395
0.236643, 0.367039, 0.098537
0.246343, 0.367099, 0.0977311
0.256107, 0.367248, 0.0957355
0.26607, 0.367661, 0.0902262
0.276199, 0.368265, 0.08216
0.286672, 0.369273, 0.0687017
0.296653, 0.369601, 0.0643163
0.306535, 0.369789, 0.0618114
0.316268, 0.369791, 0.0617857
-0.214083, 0.391656, -0.052918
-0.203114, 0.389715, -0.0278678
-0.191559, 0.386392, 0.0150037
-0.180109, 0.382934, 0.0596204
-0.169555, 0.381096, 0.0833311
-0.159537, 0.380311, 0.0934548
-0.149698, 0.37988, 0.0990171
-0.139949, 0.379632, 0.102217
-0.130258, 0.379518, 0.103681
-0.120614, 0.379533, 0.103487
-0.110992, 0.379625, 0.102302
-0.101439, 0.379993, 0.0975585
-0.0919725, 0.380799, 0.0871644
-0.082605, 0.382251, 0.0684266
-0.0731062, 0.383401, 0.0535874
-0.0633549, 0.383378, 0.0538802
-0.0536096, 0.38339, 0.053731
-0.0438659, 0.38342, 0.0533438
-0.0341207, 0.383451, 0.0529432
-0.024373, 0.383469, 0.0527086
-0.0146245, 0.383486, 0.0524864
-0.00487544, 0.383533, 0.0518823
0.00487634, 0.383604, 0.0509725
0.0146335, 0.383722, 0.0494504
0.0243983, 0.383867, 0.0475817
0.0341848, 0.384172, 0.0436435
0.0439974, 0.384569, 0.0385184
0.0538575, 0.385163, 0.0308609
0.0637949, 0.386041, 0.0195289
0.0735961, 0.38597, 0.020443
0.0837155, 0.38739, 0.00213003
0.154434, 0.391896, -0.0560141
0.164043, 0.391053, -0.0451317
0.173919, 0.390904, -0.0432138
0.182787, 0.388628, -0.0138502
0.188855, 0.380939, 0.085351
0.198279, 0.380438, 0.0918112
0.207754, 0.380077, 0.0964713
0.217288, 0.379852, 0.0993824
0.226897, 0.379771, 0.100419
0.236609, 0.379862, 0.0992436
0.246446, 0.38014, 0.0956674
0.25637, 0.380525, 0.0906997
0.266254, 0.380824, 0.0868397
0.276124, 0.381083, 0.0834961
0.285958, 0.381277, 0.0809894
0.295683, 0.381319, 0.0804548
0.305527, 0.381505, 0.0780511
0.31551, 0.381847, 0.0736322
0.325585, 0.382279, 0.0680661
-0.212791, 0.402489, -0.0224199
-0.200156, 0.397057, 0.0453658
-0.189678, 0.395567, 0.0639534
-0.179407, 0.394373, 0.0788584
-0.169337, 0.393507, 0.0896597
-0.159451, 0.39299, 0.0961103
-0.149657, 0.392648, 0.100376
-0.139923, 0.392429, 0.103109
-0.130236, 0.392316, 0.104518
-0.120585, 0.392304, 0.104669
-0.110965, 0.392399, 0.103491
-0.101394, 0.3927, 0.099731
-0.0918964, 0.393381, 0.0912318
-0.082447, 0.394453, 0.0778608
-0.0728994, 0.395276, 0.0675797
-0.063176, 0.395255, 0.0678458
-0.0534582, 0.395267, 0.067699
-0.0437406, 0.395285, 0.0674744
-0.0340206, 0.395286, 0.0674558
-0.0242987, 0.39526, 0.0677843
-0.0145792, 0.395257, 0.0678167
-0.00485992, 0.395272, 0.0676374
0.00486009, 0.395286, 0.067461
0.0145811, 0.395307, 0.0671935
0.0243069, 0.395393, 0.066123
0.0340427, 0.395543, 0.0642486
0.0437905, 0.395736, 0.0618472
0.0535547, 0.39598, 0.0587978
0.0633537, 0.396367, 0.0539718
0.073206, 0.396939, 0.0468311
0.0831081, 0.397615, 0.0383954
0.0931695, 0.398831, 0.0232291
0.103071, 0.399197, 0.0186529
0.144716, 0.405871, -0.0646272
0.154289, 0.404801, -0.0512652
0.163991, 0.40418, -0.0435209
0.172834, 0.401634, -0.0117478
0.179089, 0.393674, 0.0875745
0.1885, 0.393111, 0.0946031
0.197981, 0.392742, 0.0992041
0.20753, 0.392537, 0.101769
0.217135, 0.392451, 0.102831
0.226809, 0.392491, 0.102334
0.236538, 0.392621, 0.100716
0.246274, 0.39275, 0.0991058
0.256051, 0.392934, 0.0968113
0.26587, 0.393166, 0.0939193
0.275671, 0.393355, 0.0915618
0.285462, 0.393518, 0.0895185
0.295253, 0.393671, 0.0876174
0.305064, 0.393839, 0.0855122
0.314917, 0.39405, 0.082881
0.324862, 0.39436, 0.079021
0.335098, 0.394994, 0.0710983
0.345064, 0.395285, 0.0674796
-0.210104, 0.410435, 0.0410171
-0.199567, 0.408869, 0.0599294
-0.189236, 0.407585, 0.0754528
-0.179099, 0.406603, 0.0873151
-0.169177, 0.406023, 0.0943155
-0.159311, 0.405519, 0.100413
-0.149528, 0.405172, 0.104604
-0.139814, 0.404977, 0.106954
-0.13015, 0.404912, 0.10774
-0.120524, 0.404962, 0.107139
-0.110919, 0.405096, 0.105525
-0.101339, 0.405355, 0.102396
-0.0917901, 0.405809, 0.0969114
-0.0822918, 0.406618, 0.0871272
-0.0727602, 0.407457, 0.0769963
-0.0630497, 0.407398, 0.0777059
-0.0533455, 0.407366, 0.0780921
-0.0436421, 0.407326, 0.0785799
-0.0339378, 0.407253, 0.0794587
-0.0242369, 0.407179, 0.0803485
-0.0145415, 0.40716, 0.0805893
-0.00484704, 0.40715, 0.0807076
0.00484681, 0.40713, 0.080945
0.0145397, 0.407111, 0.0811749
0.0242373, 0.407187, 0.0802608
0.0339419, 0.407303, 0.0788608
0.043652, 0.407418, 0.0774617
0.0533666, 0.407527, 0.0761514
0.0631067, 0.407766, 0.0732589
0.0728882, 0.408174, 0.0683341
0.082693, 0.408601, 0.0631728
0.0925421, 0.409133, 0.0567403
0.102498, 0.409991, 0.0463791
0.112549, 0.411047, 0.033617
0.122599, 0.411931, 0.0229354
0.132565, 0.412426, 0.0169606
0.14397, 0.417018, -0.0385222
0.154187, 0.417796, -0.047924
0.163943, 0.417308, -0.0420299
0.171592, 0.41182, 0.0242815
0.1789, 0.406152, 0.0927653
0.188362, 0.405704, 0.0981808
0.197834, 0.405318, 0.102833
0.207376, 0.405106, 0.105395
0.216914, 0.404905, 0.107825
0.22647, 0.404755, 0.10964
0.23613, 0.404795, 0.109163
0.245818, 0.404876, 0.108175
0.255538, 0.405004, 0.10663
0.265291, 0.405172, 0.104599
0.275091, 0.405397, 0.101885
0.284952, 0.405694, 0.0982924
0.294864, 0.406043, 0.0940833
0.304763, 0.406351, 0.0903554
0.31463, 0.406598, 0.0873709
0.324477, 0.406807, 0.0848436
0.334356, 0.407042, 0.0820045
0.344559, 0.407647, 0.0746994
0.354853, 0.408324, 0.0665212
-0.220191, 0.424072, 0.033906
-0.209722, 0.422696, 0.0500221
-0.199169, 0.421008, 0.0697823
-0.188896, 0.419768, 0.0843048
-0.178869, 0.418973, 0.0936208
-0.168951, 0.418355, 0.100852
-0.159136, 0.417933, 0.105797
-0.149417, 0.417726, 0.108223
-0.139739, 0.417612, 0.109557
-0.130084, 0.417555, 0.110225
-0.120452, 0.417567, 0.110077
-0.110845, 0.417678, 0.108775
-0.101247, 0.417843, 0.106852
-0.0916731, 0.418158, 0.103157
-0.0821439, 0.418773, 0.0959554
-0.0726141, 0.419548, 0.0868855
-0.0629481, 0.419654, 0.0856371
-0.0532451, 0.419507, 0.0873613
-0.0435518, 0.419387, 0.088769
-0.0338653, 0.419284, 0.0899706
-0.0241847, 0.419202, 0.09093
-0.0145096, 0.419166, 0.0913587
-0.00483613, 0.41913, 0.0917783
0.00483563, 0.419087, 0.0922861
0.014505, 0.419032, 0.0929279
0.024176, 0.419052, 0.0926933
0.0338506, 0.419103, 0.0920959
0.0435287, 0.419165, 0.091372
0.0532109, 0.419237, 0.0905204
0.0629147, 0.419431, 0.0882473
0.0726499, 0.419755, 0.0844622
0.0824021, 0.420089, 0.0805407
0.092191, 0.420521, 0.0754924
0.102042, 0.421125, 0.0684147
0.111927, 0.421754, 0.0610509
0.121846, 0.422399, 0.0534902
0.131805, 0.423077, 0.0455556
0.141799, 0.423768, 0.0374613
0.151832, 0.424476, 0.0291729
0.16191, 0.425219, 0.0204744
0.170714, 0.422721, 0.0497236
0.178882, 0.419004, 0.0932555
0.188293, 0.418429, 0.0999918
0.19778, 0.418072, 0.104164
0.207319, 0.417853, 0.10673
0.216813, 0.417565, 0.110101
0.226361, 0.417403, 0.112004
0.235948, 0.417323, 0.112943
0.245602, 0.417363, 0.112474
0.255249, 0.417388, 0.112175
0.264963, 0.417518, 0.110658
0.274773, 0.417783, 0.107545
0.284554, 0.417988, 0.105146
0.294364, 0.418222, 0.10241
0.304256, 0.418553, 0.0985308
0.314231, 0.418974, 0.0935993
0.324217, 0.419385, 0.0887871
0.334131, 0.419682, 0.0853148
0.344101, 0.42003, 0.0812416
0.354418, 0.42077, 0.0725684
0.36476, 0.421501, 0.0640149
-0.230166, 0.437479, 0.0298276
-0.219822, 0.436387, 0.0422311
-0.209308, 0.434841, 0.0598025
-0.198838, 0.433239, 0.0779948
-0.188633, 0.432082, 0.0911455
-0.178709, 0.431477, 0.0980196
-0.16884, 0.430944, 0.104066
-0.159064, 0.430598, 0.107997
-0.149353, 0.430393, 0.110332
-0.139688, 0.430303, 0.111349
-0.130047, 0.430279, 0.11163
-0.120413, 0.430275, 0.111677
-0.110792, 0.430323, 0.11113
-0.101192, 0.430469, 0.109467
-0.0916047, 0.430703, 0.106813
-0.0820312, 0.431066, 0.102684
-0.0724826, 0.431674, 0.095777
-0.062859, 0.431954, 0.0925951
-0.0531688, 0.431795, 0.0944014
-0.0434893, 0.431671, 0.0958104
-0.0338155, 0.43155, 0.0971918
-0.0241466, 0.431419, 0.0986767
-0.0144846, 0.431317, 0.0998321
-0.00482739, 0.431245, 0.100655
0.00482665, 0.431179, 0.101397
0.0144778, 0.431116, 0.10212
0.0241292, 0.431108, 0.102208
0.0337819, 0.431121, 0.102066
0.0434364, 0.431146, 0.101777
0.0530922, 0.431174, 0.101463
0.062763, 0.431294, 0.10009
0.0724621, 0.431552, 0.0971642
0.0821812, 0.431855, 0.0937276
0.0919215, 0.432192, 0.089891
0.101729, 0.432754, 0.0835128
0.11158, 0.433384, 0.0763459
0.121432, 0.433917, 0.0703001
0.131278, 0.43435, 0.0653729
0.141145, 0.434793, 0.0603442
0.15121, 0.435745, 0.0495324
0.16127, 0.436568, 0.0401773
0.170421, 0.43498, 0.0582204
0.178908, 0.431957, 0.0925646
0.188315, 0.431354, 0.0994153
0.197793, 0.430964, 0.103841
0.207301, 0.430673, 0.107152
0.21683, 0.430448, 0.109711
0.226396, 0.430313, 0.111238
0.235965, 0.430194, 0.112589
0.245527, 0.430073, 0.113972
0.255151, 0.430065, 0.114058
0.264839, 0.430163, 0.112943
0.27454, 0.430273, 0.111699
0.284307, 0.430476, 0.109394
0.294085, 0.430682, 0.107046
0.30391, 0.430941, 0.104101
0.31385, 0.431342, 0.0995507
0.323897, 0.431863, 0.093636
0.333927, 0.43233, 0.0883226
0.343881, 0.432677, 0.0843854
0.353915, 0.433101, 0.0795622
0.364324, 0.43395, 0.069921
0.37489, 0.434938, 0.0587015
-0.229918, 0.450053, 0.0351806
-0.219327, 0.448403, 0.0533848
-0.208907, 0.446964, 0.0692601
-0.198578, 0.44559, 0.0844107
-0.188455, 0.444561, 0.0957708
-0.178608, 0.444106, 0.100782
-0.168782, 0.443655, 0.105762
-0.159044, 0.443395, 0.108632
-0.149343, 0.443212, 0.110643
-0.139681, 0.443126, 0.111598
-0.13004, 0.443098, 0.111909
-0.120408, 0.443102, 0.111856
-0.110786, 0.443144, 0.111394
-0.101155, 0.443155, 0.111272
-0.0915669, 0.443377, 0.108831
-0.081975, 0.44363, 0.10604
-0.0723864, 0.44397, 0.102287
-0.0627883, 0.444348, 0.0981193
-0.0531149, 0.444234, 0.09937
-0.0434446, 0.4441, 0.100852
-0.0337795, 0.443959, 0.102412
-0.0241205, 0.443817, 0.103974
-0.0144685, 0.443699, 0.105281
-0.00482184, 0.443607, 0.106288
0.00482085, 0.443517, 0.107283
0.0144599, 0.443435, 0.108186
0.024099, 0.443422, 0.108335
0.0337391, 0.443428, 0.108263
0.0433793, 0.443432, 0.108219
0.0530195, 0.443436, 0.108176
0.0626698, 0.44351, 0.107366
0.0723372, 0.443668, 0.105618
0.0820177, 0.443861, 0.103492
0.0917161, 0.444099, 0.100865
0.101464, 0.444508, 0.0963564
0.111257, 0.445028, 0.0906196
0.121107, 0.445674, 0.0834837
0.130978, 0.446296, 0.0766215
0.140823, 0.44675, 0.0716181
0.150763, 0.447424, 0.0641775
0.160794, 0.448273, 0.0548162
0.170721, 0.448754, 0.0495162
0.179008, 0.445101, 0.0898037
0.188367, 0.444354, 0.0980544
0.197817, 0.443883, 0.103248
0.20734, 0.44361, 0.106252
0.216873, 0.443385, 0.108737
0.226442, 0.443248, 0.110255
0.235997, 0.443097, 0.111917
0.245563, 0.442976, 0.113253
0.255121, 0.442851, 0.114628
0.264747, 0.44285, 0.114645
0.274433, 0.442944, 0.113601
0.284143, 0.44307, 0.112209
0.293924, 0.443296, 0.109725
0.303747, 0.443566, 0.106738
0.313581, 0.443838, 0.103746
0.323521, 0.444238, 0.0993342
0.333591, 0.444788, 0.0932612
0.343673, 0.445323, 0.0873599
0.353767, 0.445844, 0.0816164
0.363898, 0.446382, 0.0756783
0.374531, 0.447491, 0.0634427
0.385119, 0.448493, 0.0523911
-0.240437, 0.464518, 0.019958
-0.229473, 0.4622, 0.0448046
-0.218869, 0.460435, 0.0637264
-0.208585, 0.459211, 0.0768509
-0.198368, 0.45802, 0.0896225
-0.188375, 0.457251, 0.0978613
-0.178549, 0.456828, 0.102396
-0.168809, 0.456587, 0.104978
-0.159077, 0.456342, 0.107606
-0.149374, 0.456153, 0.109632
-0.13969, 0.456001, 0.111268
-0.130048, 0.455972, 0.111574
-0.120413, 0.455964, 0.111658
-0.110787, 0.455993, 0.111352
-0.101171, 0.456071, 0.110518
-0.0915517, 0.456152, 0.109644
-0.0819475, 0.456335, 0.10768
-0.0723459, 0.456583, 0.105031
-0.0627376, 0.456858, 0.102073
-0.0530846, 0.45685, 0.102168
-0.0434203, 0.456717, 0.103591
-0.0337604, 0.456569, 0.105171
-0.0241069, 0.456424, 0.106734
-0.0144601, 0.456294, 0.108126
-0.00481896, 0.456193, 0.109208
0.00481783, 0.456086, 0.11035
0.01445, 0.455976, 0.111534
0.0240795, 0.455905, 0.11229
0.0337082, 0.455863, 0.112743
0.0433368, 0.455838, 0.113015
0.0529644, 0.455815, 0.113263
0.0626, 0.455857, 0.112813
0.0722503, 0.455979, 0.111497
0.0819063, 0.456106, 0.110141
0.0915776, 0.456281, 0.108263
0.101292, 0.456616, 0.104668
0.111029, 0.45699, 0.100659
0.12079, 0.457392, 0.0963564
0.130609, 0.457937, 0.090508
0.140507, 0.458667, 0.0826831
0.150424, 0.459358, 0.075274
0.160368, 0.460045, 0.0679145
0.170208, 0.460373, 0.0643983
0.179183, 0.45845, 0.0850086
0.188444, 0.45742, 0.0960555
0.19787, 0.45687, 0.101954
0.207386, 0.456572, 0.105148
0.216912, 0.456318, 0.107864
0.226451, 0.456114, 0.110054
0.235975, 0.455898, 0.11237
0.245524, 0.455744, 0.114022
0.255101, 0.455652, 0.115002
0.264696, 0.455599, 0.115581
0.274373, 0.455683, 0.114672
0.284079, 0.455811, 0.113302
0.293799, 0.45595, 0.111814
0.303587, 0.456183, 0.109312
0.31342, 0.456468, 0.106256
0.323275, 0.456767, 0.103057
0.333283, 0.457258, 0.0977893
0.34341, 0.45788, 0.0911164
0.353548, 0.458482, 0.0846648
0.363715, 0.459089, 0.0781603
0.374002, 0.459811, 0.0704145
0.38488, 0.461206, 0.0554628
-0.239894, 0.476525, 0.0311956
-0.229009, 0.47426, 0.0548129
-0.218576, 0.472772, 0.0703321
-0.208328, 0.471564, 0.0829268
-0.198216, 0.470561, 0.093389
-0.18831, 0.46997, 0.0995522
-0.178539, 0.469671, 0.102661
-0.168834, 0.46952, 0.104242
-0.159113, 0.469304, 0.106489
-0.149415, 0.469133, 0.10828
-0.139739, 0.469008, 0.10958
-0.130092, 0.468972, 0.109956
-0.120453, 0.468964, 0.110038
-0.110814, 0.468952, 0.110163
-0.101187, 0.468993, 0.10974
-0.0915609, 0.469049, 0.109154
-0.0819455, 0.469178, 0.107802
-0.072331, 0.469348, 0.106037
-0.0627113, 0.469531, 0.104128
-0.0530641, 0.469537, 0.104062
-0.0434059, 0.469427, 0.105215
-0.0337484, 0.469264, 0.106911
-0.0240977, 0.469103, 0.108584
-0.0144542, 0.468956, 0.110122
-0.00481677, 0.46883, 0.11143
0.00481549, 0.468706, 0.112723
0.0144428, 0.468585, 0.113985
0.0240671, 0.468506, 0.114813
0.0336894, 0.468443, 0.115469
0.0433096, 0.468385, 0.116077
0.0529297, 0.468348, 0.116462
0.0625593, 0.468393, 0.115993
0.0721988, 0.46849, 0.114982
0.0818412, 0.468581, 0.114028
0.0914873, 0.468672, 0.113084
0.101167, 0.468903, 0.110678
0.11088, 0.46923, 0.107267
0.120611, 0.46958, 0.103614
0.130363, 0.46995, 0.0997543
0.140135, 0.470338, 0.0957117
0.149958, 0.470837, 0.0905123
0.159867, 0.471526, 0.083323
0.169755, 0.472082, 0.0775309
0.179305, 0.471685, 0.0816689
0.18858, 0.470645, 0.0925074
0.197952, 0.469936, 0.0999064
0.207408, 0.469482, 0.10464
0.216897, 0.46914, 0.108199
0.226408, 0.468874, 0.110975
0.235942, 0.468673, 0.113071
0.245483, 0.468504, 0.11483
0.255077, 0.468443, 0.115467
0.264694, 0.468429, 0.11562
0.274338, 0.46846, 0.115297
0.284035, 0.468578, 0.114064
0.293743, 0.468705, 0.112743
0.30347, 0.468854, 0.111187
0.313292, 0.469134, 0.108263
0.323154, 0.469458, 0.104891
0.333057, 0.46982, 0.101109
0.343122, 0.470383, 0.0952387
0.35327, 0.471027, 0.0885305
0.363473, 0.471707, 0.0814333
0.373748, 0.472443, 0.073761
0.384388, 0.473592, 0.0617771
0.395224, 0.474919, 0.0479412
-0.250689, 0.491548, 0.0112324
-0.239593, 0.488965, 0.0374403
-0.228772, 0.486748, 0.0599403
-0.218378, 0.485284, 0.0747981
-0.208102, 0.483959, 0.0882521
-0.198127, 0.483235, 0.0955925
-0.188267, 0.482735, 0.10067
-0.17852, 0.482487, 0.103185
-0.168818, 0.482336, 0.104721
-0.159163, 0.482312, 0.104966
-0.149485, 0.482208, 0.106018
-0.139802, 0.482075, 0.107369
-0.130144, 0.482016, 0.107972
-0.120501, 0.482003, 0.1081
-0.110856, 0.481985, 0.108288
-0.101216, 0.48198, 0.108339
-0.0915795, 0.481997, 0.108159
-0.0819485, 0.48205, 0.107621
-0.0723233, 0.482155, 0.106557
-0.0627038, 0.482337, 0.104712
-0.0530557, 0.482325, 0.104836
-0.0433991, 0.482212, 0.105985
-0.0337427, 0.482038, 0.107749
-0.0240935, 0.48187, 0.109453
-0.0144514, 0.481711, 0.111061
-0.00481568, 0.481566, 0.112535
0.00481428, 0.481426, 0.113961
0.0144389, 0.481295, 0.11529
0.0240602, 0.481203, 0.116216
0.0336785, 0.481121, 0.117051
0.0432933, 0.481036, 0.117912
0.0529045, 0.48095, 0.11879
0.0625229, 0.480945, 0.118838
0.0721515, 0.48101, 0.11818
0.0817829, 0.481076, 0.117509
0.0914197, 0.481156, 0.116696
0.101091, 0.481385, 0.114374
0.110782, 0.48166, 0.111581
0.120491, 0.481964, 0.108498
0.130223, 0.482307, 0.105015
0.139985, 0.482706, 0.100971
0.149755, 0.48308, 0.0971699
0.159522, 0.483399, 0.0939379
0.169294, 0.483697, 0.0909061
0.179013, 0.483818, 0.0896769
0.188621, 0.483643, 0.0914545
0.198019, 0.482972, 0.0982652
0.20741, 0.48235, 0.104584
0.216876, 0.481946, 0.108681
0.226363, 0.481623, 0.111956
0.235921, 0.481472, 0.113487
0.245486, 0.481345, 0.114783
0.255073, 0.481269, 0.115551
0.264698, 0.48127, 0.115543
0.274327, 0.481276, 0.115478
0.283991, 0.481341, 0.114824
0.293698, 0.481472, 0.113493
0.303421, 0.48162, 0.111988
0.313177, 0.481811, 0.11005
0.323041, 0.482151, 0.106598
0.332941, 0.482524, 0.102815
0.342931, 0.483001, 0.0979705
0.353107, 0.483708, 0.0907941
0.363315, 0.48442, 0.0835714
0.373591, 0.485183, 0.0758238
0.384068, 0.486162, 0.0658894
0.395145, 0.487833, 0.0489306
-0.250317, 0.503906, 0.0186453
-0.239508, 0.501826, 0.0392041
-0.228678, 0.499523, 0.0619707
-0.218217, 0.497858, 0.078433
-0.207998, 0.496615, 0.090714
-0.198052, 0.495934, 0.0974483
-0.188255, 0.495577, 0.100977
-0.178511, 0.495327, 0.10345
-0.168816, 0.495195, 0.104756
-0.159175, 0.49521, 0.104608
-0.149535, 0.495233, 0.104376
-0.139862, 0.495142, 0.105276
-0.1302, 0.49508, 0.105892
-0.120552, 0.495068, 0.106013
-0.110905, 0.495055, 0.106138
-0.101258, 0.495038, 0.106302
-0.0916095, 0.495013, 0.106557
-0.0819653, 0.495006, 0.106621
-0.0723402, 0.495128, 0.105414
-0.0627153, 0.49529, 0.103817
-0.0530613, 0.495239, 0.104321
-0.0434021, 0.495105, 0.10564
-0.0337444, 0.494917, 0.1075
-0.024094, 0.494731, 0.109338
-0.0144513, 0.494554, 0.11109
-0.00481553, 0.494393, 0.112685
0.0048139, 0.494225, 0.114346
0.0144371, 0.494068, 0.11589
0.0240562, 0.493954, 0.117017
0.0336714, 0.493847, 0.11808
0.0432826, 0.493741, 0.119123
0.0528908, 0.493647, 0.120052
0.0625065, 0.493641, 0.120113
0.0721288, 0.493681, 0.119721
0.081753, 0.493724, 0.119292
0.0913809, 0.493777, 0.11877
0.101037, 0.493957, 0.11699
0.11071, 0.494183, 0.114757
0.120398, 0.494434, 0.112277
0.13011, 0.494739, 0.109256
0.139848, 0.495093, 0.10576
0.149607, 0.495474, 0.101994
0.159366, 0.495805, 0.0987282
0.16914, 0.496143, 0.095387
0.178813, 0.496165, 0.0951676
0.188496, 0.49621, 0.0947156
0.198051, 0.495933, 0.0974607
0.20744, 0.495284, 0.103878
0.216902, 0.494858, 0.108086
0.226388, 0.494521, 0.111419
0.235927, 0.494324, 0.113367
0.245498, 0.494206, 0.114531
0.255071, 0.4941, 0.115579
0.264692, 0.494091, 0.115663
0.274321, 0.494098, 0.115593
0.283957, 0.494116, 0.115416
0.293659, 0.494245, 0.114145
0.303389, 0.494412, 0.112493
0.313133, 0.494589, 0.110746
0.322985, 0.494922, 0.107452
0.332898, 0.495327, 0.103453
0.342845, 0.495756, 0.0992026
0.352974, 0.49642, 0.0926456
0.36316, 0.497126, 0.0856676
0.373483, 0.497977, 0.0772562
0.38399, 0.499025, 0.066895
0.395141, 0.500838, 0.0489731
0.407105, 0.503567, 0.0219903
0.684586, 0.505641, 0.00148726
0.69353, 0.504981, 0.00801086
-0.250344, 0.51705, 0.0181093
-0.239526, 0.514899, 0.0388331
-0.228716, 0.512584, 0.0611382
-0.218179, 0.5107, 0.0792866
-0.208008, 0.509539, 0.0904813
-0.198048, 0.508805, 0.0975451
-0.188254, 0.508446, 0.10101
-0.17852, 0.508219, 0.103196
-0.168834, 0.508109, 0.104259
-0.15918, 0.508088, 0.104454
-0.149557, 0.508171, 0.103659
-0.139926, 0.508237, 0.103019
-0.130261, 0.50818, 0.103568
-0.120604, 0.508145, 0.103906
-0.110955, 0.50814, 0.103959
-0.101303, 0.508125, 0.104105
-0.0916542, 0.508118, 0.104168
-0.0820042, 0.508105, 0.104296
-0.0723707, 0.508203, 0.103354
-0.0627388, 0.508345, 0.101981
-0.0530758, 0.508241, 0.102984
-0.0434122, 0.508083, 0.104502
-0.0337517, 0.507883, 0.106436
-0.0240989, 0.507684, 0.108349
-0.0144541, 0.507497, 0.110154
-0.00481644, 0.50733, 0.111762
0.00481482, 0.507159, 0.11341
0.0144397, 0.506994, 0.115003
0.02406, 0.506864, 0.116254
0.033676, 0.506743, 0.11742
0.0432874, 0.506623, 0.118576
0.0528946, 0.506506, 0.119699
0.0625071, 0.506467, 0.120072
0.0721223, 0.506459, 0.120156
0.0817399, 0.506467, 0.120075
0.091361, 0.506493, 0.119828
0.101011, 0.506657, 0.118241
0.110678, 0.506876, 0.11614
0.120354, 0.507093, 0.114046
0.13005, 0.507357, 0.1115
0.139765, 0.507651, 0.108669
0.149483, 0.507921, 0.106065
0.15922, 0.508218, 0.103206
0.168974, 0.50853, 0.100198
0.178629, 0.508529, 0.100208
0.188278, 0.508512, 0.100377
0.197924, 0.508488, 0.100609
0.207431, 0.508126, 0.104092
0.216886, 0.507675, 0.108439
0.226417, 0.507431, 0.110788
0.235951, 0.507215, 0.112864
0.245521, 0.50709, 0.114078
0.255073, 0.506937, 0.115546
0.264664, 0.506871, 0.11618
0.274294, 0.506882, 0.116078
0.28393, 0.506904, 0.115868
0.293633, 0.507038, 0.114578
0.30338, 0.507238, 0.112646
0.313131, 0.507432, 0.110777
0.322935, 0.507699, 0.108202
0.332858, 0.508131, 0.104039
0.34282, 0.508597, 0.0995498
0.352952, 0.509283, 0.0929465
0.363223, 0.510126, 0.0848193
0.373614, 0.511091, 0.0755277
0.384176, 0.512234, 0.0645099
0.39524, 0.513974, 0.0477433
0.406912, 0.516402, 0.024353
0.675965, 0.51972, -0.0076189
0.68353, 0.517975, 0.00919533
0.693218, 0.517865, 0.0102563
-0.260665, 0.531167, 0.00845528
-0.250153, 0.529735, 0.0219069
-0.239636, 0.528177, 0.0365472
-0.229003, 0.526218, 0.0549569
-0.218274, 0.523857, 0.0771437
-0.208058, 0.522565, 0.0892911
-0.1981, 0.521825, 0.0962439
-0.188286, 0.521407, 0.100171
-0.178553, 0.521182, 0.102288
-0.168867, 0.521076, 0.103286
-0.15921, 0.521051, 0.103516
-0.149594, 0.521166, 0.10244
-0.139964, 0.521245, 0.101694
-0.130322, 0.521286, 0.101306
-0.120658, 0.521243, 0.101715
-0.111001, 0.521223, 0.101902
-0.101349, 0.521221, 0.101922
-0.091696, 0.521219, 0.101938
-0.0820465, 0.521237, 0.101771
-0.0724144, 0.521383, 0.100392
-0.0627684, 0.521461, 0.0996671
-0.0530998, 0.521344, 0.100767
-0.0434322, 0.521185, 0.102256
-0.0337671, 0.520978, 0.1042
-0.0241096, 0.520767, 0.106182
-0.0144604, 0.520572, 0.108014
-0.00481862, 0.520409, 0.109553
0.00481702, 0.520236, 0.111172
0.0144462, 0.52006, 0.112829
0.0240706, 0.519925, 0.1141
0.0336901, 0.51979, 0.115364
0.0433042, 0.51965, 0.116682
0.0529138, 0.519518, 0.117927
0.0625289, 0.51947, 0.11837
0.0721457, 0.519449, 0.118576
0.0817632, 0.519437, 0.118686
0.0913831, 0.519441, 0.11865
0.101026, 0.519563, 0.1175
0.110678, 0.519708, 0.116141
0.120337, 0.519858, 0.114731
0.130014, 0.520057, 0.11286
0.139703, 0.520275, 0.110808
0.149403, 0.5205, 0.1087
0.159116, 0.520744, 0.106406
0.16885, 0.521021, 0.103798
0.178501, 0.521031, 0.103703
0.188108, 0.520915, 0.104798
0.197737, 0.520869, 0.105226
0.20734, 0.520762, 0.106236
0.216838, 0.520411, 0.109534
0.226377, 0.520186, 0.111644
0.235967, 0.52009, 0.112552
0.245534, 0.519953, 0.113832
0.255076, 0.519777, 0.115486
0.264632, 0.519641, 0.116771
0.274263, 0.519656, 0.116621
0.283911, 0.519701, 0.116203
0.293602, 0.51982, 0.115081
0.303375, 0.520071, 0.112725
0.313166, 0.520338, 0.110217
0.323016, 0.520683, 0.106977
0.332992, 0.521205, 0.102074
0.342978, 0.521713, 0.0973005
0.353132, 0.522442, 0.0904417
0.363397, 0.523291, 0.0824652
0.373791, 0.524278, 0.0731964
0.384399, 0.525508, 0.0616336
0.395754, 0.527672, 0.0412984
0.407229, 0.529889, 0.0204649
0.664461, 0.531569, 0.00468016
0.673063, 0.53059, 0.0138793
0.68303, 0.530699, 0.0128493
0.693546, 0.531227, 0.00789165
-0.260404, 0.543737, 0.0134573
-0.250088, 0.542674, 0.0232067
-0.239725, 0.541419, 0.0347104
-0.229303, 0.539918, 0.0484743
-0.218536, 0.537436, 0.0712452
-0.20829, 0.536064, 0.0838194
-0.198207, 0.534998, 0.0935955
-0.188391, 0.53458, 0.0974364
-0.178648, 0.534334, 0.0996923
-0.168918, 0.534103, 0.101803
-0.159271, 0.53412, 0.101647
-0.149661, 0.534274, 0.100239
-0.14001, 0.534292, 0.100075
-0.130364, 0.534332, 0.0997095
-0.120708, 0.534335, 0.0996766
-0.111049, 0.534322, 0.0997987
-0.101396, 0.534341, 0.0996261
-0.0917498, 0.534402, 0.0990634
-0.0821004, 0.534458, 0.098556
-0.0724643, 0.534625, 0.0970187
-0.0628145, 0.534729, 0.0960679
-0.0531412, 0.534633, 0.0969434
-0.0434664, 0.534475, 0.0983982
-0.0337937, 0.534262, 0.100346
-0.0241286, 0.534047, 0.102322
-0.0144718, 0.533845, 0.104171
-0.00482228, 0.533663, 0.105842
0.00482053, 0.53347, 0.107609
0.0144563, 0.533276, 0.109395
0.0240865, 0.533114, 0.110876
0.0337118, 0.532968, 0.112217
0.0433319, 0.532821, 0.113562
0.0529463, 0.532673, 0.114925
0.0625658, 0.532611, 0.115486
0.0721865, 0.532576, 0.115816
0.0818054, 0.532537, 0.116167
0.0914254, 0.532513, 0.116388
0.101064, 0.532592, 0.115663
0.110714, 0.532711, 0.114577
0.12037, 0.532837, 0.113418
0.130036, 0.532985, 0.112059
0.139709, 0.533141, 0.110628
0.149393, 0.533319, 0.109001
0.159091, 0.533516, 0.107187
0.168794, 0.533709, 0.10542
0.178449, 0.533739, 0.105146
0.188033, 0.533564, 0.10675
0.197648, 0.533488, 0.107445
0.207277, 0.533457, 0.107729
0.216842, 0.53327, 0.109449
0.226358, 0.532985, 0.112063
0.23594, 0.532872, 0.113095
0.245526, 0.532776, 0.11398
0.255068, 0.532595, 0.11564
0.264631, 0.53247, 0.116783
0.274299, 0.532557, 0.115985
0.283999, 0.532699, 0.114686
0.293727, 0.532883, 0.112999
0.303527, 0.533181, 0.110267
0.313338, 0.533478, 0.107539
0.323194, 0.533832, 0.104292
0.333164, 0.534351, 0.0995378
0.343168, 0.534891, 0.0945821
0.353369, 0.535702, 0.0871477
0.36368, 0.53663, 0.0786314
0.374189, 0.537795, 0.0679474
0.38501, 0.539339, 0.0537868
0.396466, 0.541674, 0.032373
0.407974, 0.543966, 0.0113587
0.418363, 0.544692, 0.00469494
0.655235, 0.545208, -3.62396e-05
0.663403, 0.543827, 0.0126338
0.672657, 0.543363, 0.0168858
0.682822, 0.543638, 0.0143671
0.693599, 0.544385, 0.00750971
-0.260442, 0.556919, 0.0127358
-0.250034, 0.555632, 0.0242667
-0.23981, 0.554664, 0.0329347
-0.229584, 0.553606, 0.0424047
-0.219117, 0.551851, 0.0581269
-0.208589, 0.54977, 0.0767603
-0.198497, 0.548692, 0.0864167
-0.188551, 0.547927, 0.0932622
-0.178764, 0.547567, 0.0964909
-0.169076, 0.547485, 0.0972252
-0.159359, 0.547294, 0.098927
-0.149722, 0.547372, 0.0982318
-0.140087, 0.547468, 0.0973768
-0.130418, 0.547433, 0.097682
-0.120774, 0.547508, 0.0970149
-0.111121, 0.547554, 0.0965986
-0.101454, 0.547531, 0.0968118
-0.0918091, 0.547633, 0.0958934
-0.0821646, 0.547764, 0.0947208
-0.0725325, 0.548023, 0.0924058
-0.0628826, 0.548207, 0.0907545
-0.0532039, 0.548162, 0.0911627
-0.0435188, 0.548014, 0.092485
-0.0338342, 0.547791, 0.0944815
-0.0241584, 0.547591, 0.0962687
-0.0144902, 0.547406, 0.0979285
-0.00482823, 0.547197, 0.0997996
0.00482618, 0.546965, 0.101882
0.0144728, 0.546747, 0.103827
0.0241123, 0.546547, 0.105625
0.0337451, 0.546348, 0.107401
0.0433719, 0.546165, 0.109046
0.0529944, 0.546003, 0.110494
0.0626185, 0.545905, 0.111372
0.0722421, 0.545829, 0.112054
0.0818641, 0.545761, 0.112662
0.0914892, 0.545725, 0.112982
0.101129, 0.545775, 0.112538
0.110775, 0.54585, 0.111867
0.120428, 0.545942, 0.111042
0.13009, 0.546058, 0.109996
0.139763, 0.546199, 0.108737
0.149442, 0.546349, 0.107396
0.159128, 0.546501, 0.106029
0.168819, 0.546653, 0.104669
0.178469, 0.546662, 0.10459
0.188055, 0.546485, 0.10618
0.197676, 0.546422, 0.106739
0.207311, 0.546402, 0.106923
0.216886, 0.546231, 0.10845
0.226401, 0.545931, 0.111139
0.235971, 0.545784, 0.112452
0.245557, 0.545682, 0.113371
0.255125, 0.545549, 0.114554
0.26475, 0.545545, 0.114595
0.274444, 0.545677, 0.113409
0.284153, 0.54583, 0.112042
0.293892, 0.546029, 0.110257
0.303716, 0.546367, 0.107235
0.313552, 0.546707, 0.104191
0.323449, 0.547127, 0.100425
0.333461, 0.547713, 0.0951786
0.343534, 0.548364, 0.0893526
0.353808, 0.54929, 0.0810561
0.364197, 0.550341, 0.071641
0.374776, 0.551619, 0.0602055
0.385683, 0.5533, 0.0451503
0.397095, 0.555606, 0.0244966
0.407807, 0.556845, 0.0134048
0.417889, 0.557185, 0.0103593
0.428037, 0.557597, 0.00667143
0.645521, 0.558466, -0.00111103
0.654418, 0.557649, 0.00619984
0.663023, 0.556612, 0.0154862
0.672619, 0.556424, 0.0171695
0.682745, 0.556674, 0.0149317
0.693666, 0.557556, 0.00703049
0.704431, 0.558291, 0.000456333
-0.260461, 0.570065, 0.0123725
-0.24999, 0.568604, 0.0251527
-0.239898, 0.567923, 0.031116
-0.229764, 0.567078, 0.0385098
-0.219618, 0.566127, 0.0468307
-0.209228, 0.56443, 0.0616751
-0.198918, 0.562793, 0.0759931
-0.188896, 0.561843, 0.0843058
-0.179044, 0.561326, 0.0888286
-0.1693, 0.561109, 0.0907269
-0.159578, 0.560941, 0.0921974
-0.14987, 0.560805, 0.0933886
-0.140198, 0.560794, 0.0934887
-0.130528, 0.560787, 0.0935512
-0.120869, 0.560833, 0.0931425
-0.111203, 0.560851, 0.0929842
-0.10152, 0.560778, 0.0936289
-0.0918708, 0.560896, 0.092597
-0.0822319, 0.561112, 0.0907011
-0.0726083, 0.561504, 0.0872726
-0.0629622, 0.561816, 0.0845408
-0.0532739, 0.561798, 0.0847006
-0.0435827, 0.561732, 0.0852823
-0.0338888, 0.561585, 0.0865655
-0.0241979, 0.561392, 0.0882525
-0.0145139, 0.561201, 0.089921
-0.00483624, 0.561001, 0.0916705
0.00483437, 0.560785, 0.0935683
0.0144971, 0.560551, 0.0956144
0.0241515, 0.560315, 0.0976739
0.033798, 0.560081, 0.0997243
0.0434364, 0.559847, 0.101774
0.053067, 0.559616, 0.10379
0.0626953, 0.559435, 0.105376
0.0723229, 0.559297, 0.106587
0.0819475, 0.559172, 0.10768
0.0915742, 0.559084, 0.108444
0.101219, 0.559117, 0.108161
0.110867, 0.559157, 0.107809
0.120517, 0.559198, 0.10745
0.130175, 0.559269, 0.106833
0.139847, 0.559387, 0.105794
0.149527, 0.559519, 0.104638
0.159212, 0.559653, 0.103468
0.168894, 0.559761, 0.102523
0.178545, 0.559763, 0.10251
0.188128, 0.559561, 0.104276
0.197761, 0.559519, 0.104641
0.207395, 0.559485, 0.104942
0.216956, 0.559264, 0.106868
0.226481, 0.558975, 0.109398
0.236044, 0.558797, 0.110956
0.245628, 0.558684, 0.111946
0.255251, 0.558662, 0.112138
0.264904, 0.558707, 0.111749
0.274627, 0.558891, 0.110137
0.284376, 0.559112, 0.108199
0.294175, 0.559415, 0.105551
0.304025, 0.559792, 0.102251
0.313874, 0.560145, 0.0991659
0.323804, 0.560616, 0.0950441
0.333822, 0.561209, 0.0898566
0.343972, 0.561982, 0.0830889
0.354308, 0.563009, 0.0741038
0.364828, 0.564267, 0.0630994
0.37555, 0.565763, 0.0500088
0.386489, 0.567503, 0.0347862
0.397679, 0.569516, 0.0171733
0.407815, 0.569958, 0.0133119
0.417561, 0.569848, 0.0142698
0.42751, 0.570013, 0.0128264
0.437574, 0.570321, 0.0101328
0.447854, 0.570891, 0.00514841
0.645562, 0.571643, -0.00143337
0.654169, 0.570553, 0.00810194
0.66296, 0.569654, 0.015964
0.672718, 0.569601, 0.0164356
0.682726, 0.569757, 0.015069
0.693803, 0.570789, 0.0060401
0.704275, 0.5713, 0.00156355
-0.260225, 0.582642, 0.0168858
-0.250033, 0.581777, 0.0242867
-0.239946, 0.581092, 0.0301385
-0.229905, 0.580469, 0.0354719
-0.219815, 0.579661, 0.0423861
-0.209785, 0.578941, 0.0485382
-0.199685, 0.57795, 0.0570154
-0.189605, 0.576918, 0.065845
-0.179585, 0.575967, 0.0739784
-0.169687, 0.575318, 0.0795245
-0.159895, 0.574976, 0.0824533
-0.150187, 0.574911, 0.0830064
-0.140467, 0.574784, 0.0840917
-0.130754, 0.574672, 0.0850539
-0.121018, 0.574434, 0.0870905
-0.111303, 0.574261, 0.0885706
-0.101627, 0.574272, 0.0884733
-0.0919603, 0.574349, 0.0878153
-0.0823128, 0.574576, 0.0858736
-0.0726818, 0.574993, 0.0823021
-0.0630378, 0.575422, 0.0786366
-0.0533494, 0.575527, 0.0777388
-0.0436508, 0.575543, 0.0775981
-0.0339465, 0.575474, 0.0781903
-0.0242438, 0.575386, 0.078948
-0.0145424, 0.57523, 0.080276
-0.00484598, 0.575054, 0.0817819
0.00484439, 0.574866, 0.083396
0.0145274, 0.574639, 0.0853367
0.0242011, 0.574373, 0.0876088
0.0338645, 0.574083, 0.090086
0.0435182, 0.573795, 0.0925527
0.0531639, 0.573526, 0.094851
0.0628052, 0.573299, 0.0967965
0.0724417, 0.573094, 0.0985446
0.0820748, 0.572914, 0.100082
0.0917048, 0.572753, 0.101465
0.10135, 0.572706, 0.101869
0.110997, 0.572678, 0.102102
0.120649, 0.572678, 0.102101
0.130305, 0.5727, 0.101916
0.139969, 0.572746, 0.101523
0.149644, 0.572831, 0.1008
0.159327, 0.572935, 0.0999084
0.169002, 0.572997, 0.0993752
0.178662, 0.573007, 0.0992885
0.188257, 0.572816, 0.100925
0.1979, 0.572784, 0.101196
0.20751, 0.572662, 0.10224
0.21703, 0.572316, 0.105204
0.226562, 0.57203, 0.107648
0.236128, 0.571848, 0.109201
0.245796, 0.571918, 0.108606
0.255466, 0.571987, 0.108011
0.265144, 0.572069, 0.107314
0.274895, 0.572297, 0.105365
0.284673, 0.572563, 0.103086
0.294493, 0.572893, 0.100266
0.304348, 0.573269, 0.0970545
0.314229, 0.573669, 0.0936255
0.32424, 0.574276, 0.0884404
0.334281, 0.574898, 0.0831161
0.344546, 0.575861, 0.0748792
