0.146986, 0.530115, 0.10892
0.151828, 0.530191, 0.10821
0.156673, 0.530279, 0.107406
0.161522, 0.53037, 0.106567
0.166366, 0.530444, 0.105882
0.17122, 0.53054, 0.104993
0.17605, 0.530561, 0.104805
0.180843, 0.530474, 0.105604
0.185634, 0.530383, 0.106447
0.190431, 0.530313, 0.107088
0.195236, 0.530271, 0.107474
0.200054, 0.530262, 0.107557
0.204868, 0.530247, 0.107694
0.209679, 0.530223, 0.107915
0.214465, 0.530139, 0.108697
0.219223, 0.529989, 0.11008
0.223974, 0.529831, 0.111537
0.228746, 0.529727, 0.112492
0.23354, 0.529677, 0.112955
0.23834, 0.529644, 0.113263
0.243142, 0.529616, 0.113517
0.247922, 0.529542, 0.114202
0.252691, 0.529448, 0.115071
0.257457, 0.52935, 0.115974
0.262221, 0.529253, 0.116872
0.267033, 0.529255, 0.116851
0.271884, 0.529332, 0.11614
0.276737, 0.52941, 0.115423
0.281591, 0.529487, 0.114712
0.286447, 0.529567, 0.113975
0.291311, 0.529657, 0.113143
0.296208, 0.529803, 0.111792
0.301108, 0.52995, 0.110434
0.30601, 0.530096, 0.109091
0.310913, 0.53024, 0.107763
0.315819, 0.530383, 0.10644
0.320739, 0.530546, 0.104943
0.325727, 0.530815, 0.102459
0.330708, 0.531063, 0.100168
0.335693, 0.531312, 0.0978727
0.340682, 0.531561, 0.095572
0.345702, 0.53185, 0.0929098
0.350817, 0.532273, 0.0890021
0.35596, 0.53273, 0.0847926
0.361112, 0.533185, 0.0805888
0.366322, 0.533714, 0.075706
0.371587, 0.534307, 0.0702338
0.376871, 0.534914, 0.0646386
0.382298, 0.535704, 0.057353
0.387922, 0.536747, 0.0477247
0.393584, 0.537817, 0.0378542
0.399602, 0.53934, 0.0237985
0.40546, 0.540613, 0.0120578
0.411067, 0.541526, 0.00363445
0.751936, 0.54238, -0.00424862
0.756641, 0.542218, -0.00275421
-0.258136, 0.547413, 0.00980711
-0.252774, 0.54645, 0.0185838
-0.247558, 0.545771, 0.0247741
-0.242401, 0.545198, 0.0299964
-0.237203, 0.544507, 0.0362968
-0.23204, 0.543868, 0.0421162
-0.22683, 0.543091, 0.0492015
-0.221402, 0.541745, 0.0614762
-0.215935, 0.540242, 0.0751767
-0.210827, 0.539587, 0.0811467
-0.205849, 0.539244, 0.084271
-0.200705, 0.538437, 0.0916319
-0.19576, 0.53814, 0.0943394
-0.190859, 0.53795, 0.0960684
-0.185962, 0.537761, 0.0977921
-0.181087, 0.537626, 0.0990243
-0.176252, 0.537608, 0.0991883
-0.171336, 0.537336, 0.101663
-0.166494, 0.537285, 0.102134
-0.161676, 0.537311, 0.101894
-0.156871, 0.537383, 0.101233
-0.152065, 0.537455, 0.100576
-0.147262, 0.537546, 0.0997548
-0.142437, 0.53756, 0.0996237
-0.137605, 0.537543, 0.0997758
-0.13278, 0.537558, 0.0996442
-0.127961, 0.537596, 0.099299
-0.123135, 0.537607, 0.0991964
-0.118304, 0.537598, 0.099278
-0.113473, 0.537588, 0.0993633
-0.108647, 0.537604, 0.099226
-0.103823, 0.537627, 0.0990133
-0.0989984, 0.53765, 0.098805
-0.0941763, 0.537691, 0.098433
-0.0893559, 0.537745, 0.0979362
-0.0845285, 0.537762, 0.0977817
-0.0797119, 0.537854, 0.0969462
-0.0748865, 0.537895, 0.0965729
-0.0700754, 0.538051, 0.0951509
-0.0652585, 0.538181, 0.0939617
-0.0604201, 0.538141, 0.0943284
-0.0555854, 0.538131, 0.0944209
-0.0507472, 0.538081, 0.0948758
-0.0459089, 0.53802, 0.0954256
-0.0410684, 0.537916, 0.0963774
-0.0362298, 0.537812, 0.0973234
-0.0313931, 0.537708, 0.0982742
-0.0265583, 0.537604, 0.0992203
-0.0217254, 0.537501, 0.100162
-0.0168948, 0.537415, 0.100947
-0.0120654, 0.537313, 0.101878
-0.00723795, 0.537219, 0.102733
-0.00241224, 0.537136, 0.103484
0.00241187, 0.537054, 0.104239
0.00723461, 0.536971, 0.10499
0.0120558, 0.536885, 0.105774
0.0168754, 0.536799, 0.106564
0.021694, 0.536726, 0.107229
0.0265113, 0.536652, 0.107898
0.0313272, 0.536579, 0.108562
0.0361418, 0.536506, 0.109232
0.0409552, 0.536433, 0.109896
0.0457672, 0.53636, 0.110564
0.050578, 0.536287, 0.111227
0.0553875, 0.536215, 0.111885
0.0602002, 0.536183, 0.11218
0.0650123, 0.536151, 0.112469
0.0698245, 0.536124, 0.112714
0.0746364, 0.536098, 0.112953
0.0794477, 0.536071, 0.113197
0.0842586, 0.536045, 0.113436
0.0890704, 0.536027, 0.1136
0.0938872, 0.53604, 0.11348
0.0987101, 0.536084, 0.113077
0.103534, 0.536129, 0.112669
0.108359, 0.536174, 0.112254
0.113184, 0.536219, 0.111845
0.118013, 0.536274, 0.111342
0.122842, 0.536331, 0.110823
0.127674, 0.53639, 0.110289
0.132508, 0.536457, 0.10968
0.137344, 0.536524, 0.109066
0.142182, 0.536596, 0.108407
0.147021, 0.536667, 0.107763
0.151862, 0.536739, 0.107103
0.156704, 0.536811, 0.106449
0.161545, 0.536876, 0.105859
0.166385, 0.536934, 0.105333
0.171226, 0.536991, 0.104812
0.176051, 0.536995, 0.104771
0.180842, 0.536899, 0.10565
0.185636, 0.536817, 0.106395
0.190433, 0.536749, 0.107014
0.195245, 0.536723, 0.107252
0.200062, 0.536712, 0.107354
0.20488, 0.536706, 0.107412
0.209696, 0.536692, 0.107534
0.214482, 0.536605, 0.108326
0.21925, 0.536479, 0.10948
0.224002, 0.53632, 0.110927
0.228759, 0.536179, 0.112209
0.233553, 0.536129, 0.112672
0.238346, 0.536078, 0.11313
0.243138, 0.536028, 0.113592
0.247924, 0.535966, 0.114158
0.252702, 0.535889, 0.114858
0.257478, 0.535811, 0.115562
0.262274, 0.535776, 0.115884
0.267107, 0.535819, 0.115496
0.27196, 0.535897, 0.114784
0.276814, 0.535975, 0.114068
0.28167, 0.536056, 0.113337
0.286529, 0.536137, 0.112591
0.291397, 0.536234, 0.11171
0.296295, 0.536382, 0.110358
0.301195, 0.536529, 0.10902
0.306097, 0.536674, 0.107697
0.311002, 0.53682, 0.10637
0.315909, 0.536965, 0.105047
0.320834, 0.537136, 0.103491
0.325823, 0.537406, 0.101027
0.330823, 0.537688, 0.0984583
0.335829, 0.53797, 0.0958858
0.340839, 0.538252, 0.093318
0.345919, 0.538634, 0.0898328
0.351057, 0.539095, 0.085629
0.356205, 0.539558, 0.0814104
0.361369, 0.540032, 0.0770884
0.366606, 0.540602, 0.0718889
0.371875, 0.541204, 0.0664082
0.37721, 0.541885, 0.0601988
0.38265, 0.542697, 0.0527959
0.388258, 0.543723, 0.0434365
0.39413, 0.545091, 0.0309715
0.399836, 0.546198, 0.0208817
0.405445, 0.547145, 0.0122447
0.410675, 0.547566, 0.00840855
0.415984, 0.548082, 0.00370646
0.738403, 0.549892, -0.0127954
0.741988, 0.54889, -0.00366116
0.745434, 0.547799, 0.00628042
0.750089, 0.547606, 0.00804472
-0.257977, 0.553626, 0.0128922
-0.252736, 0.552911, 0.0193348
-0.247538, 0.552263, 0.0251675
-0.242426, 0.551784, 0.0294857
-0.237242, 0.551118, 0.0354877
-0.232137, 0.550612, 0.0400448
-0.227002, 0.550013, 0.0454416
-0.22161, 0.548748, 0.0568304
-0.216227, 0.54745, 0.0685229
-0.210961, 0.546398, 0.0780067
-0.205949, 0.545967, 0.0818853
-0.200946, 0.545539, 0.0857391
-0.195882, 0.544922, 0.0912971
-0.190929, 0.544591, 0.0942769
-0.186026, 0.544387, 0.0961199
-0.18114, 0.544226, 0.0975695
-0.176304, 0.544207, 0.097744
-0.171468, 0.544189, 0.0979028
-0.166554, 0.543915, 0.100371
-0.16171, 0.543861, 0.100857
-0.156904, 0.543933, 0.100205
-0.152097, 0.544007, 0.0995383
-0.147288, 0.54408, 0.098886
-0.142482, 0.544169, 0.0980797
-0.13764, 0.54412, 0.0985198
-0.13281, 0.544119, 0.098537
-0.127984, 0.544134, 0.0984006
-0.123158, 0.544148, 0.098268
-0.118335, 0.54418, 0.0979819
-0.113513, 0.544216, 0.0976601
-0.108689, 0.54425, 0.0973539
-0.103853, 0.544224, 0.0975881
-0.0990271, 0.544247, 0.0973802
-0.0942043, 0.544292, 0.0969782
-0.0893869, 0.544374, 0.0962329
-0.0845584, 0.544395, 0.0960488
-0.0797425, 0.544504, 0.0950646
-0.0749182, 0.544566, 0.0945024
-0.0701097, 0.544761, 0.092752
-0.0652951, 0.544932, 0.0912056
-0.0604557, 0.544907, 0.091433
-0.0556184, 0.544899, 0.0915055
-0.0507807, 0.544885, 0.0916328
-0.04594, 0.544833, 0.0921021
-0.0410963, 0.544727, 0.0930533
-0.0362544, 0.544622, 0.0940003
-0.0314144, 0.544517, 0.0949516
-0.0265773, 0.544432, 0.0957179
-0.021742, 0.544354, 0.0964203
-0.016908, 0.544276, 0.0971169
-0.0120753, 0.544195, 0.0978484
-0.0072441, 0.544114, 0.0985742
-0.00241423, 0.544018, 0.0994444
0.00241377, 0.543914, 0.100379
0.00724004, 0.54381, 0.101317
0.0120645, 0.543706, 0.102252
0.0168871, 0.543603, 0.10318
0.021708, 0.543504, 0.104073
0.0265272, 0.543404, 0.104971
0.0313445, 0.543305, 0.105864
0.0361603, 0.543209, 0.106732
0.0409762, 0.543135, 0.107395
0.0457906, 0.543061, 0.108063
0.0506039, 0.542987, 0.108727
0.0554157, 0.542913, 0.109395
0.0602309, 0.542881, 0.109689
0.0650455, 0.542849, 0.109969
0.0698597, 0.542818, 0.110253
0.0746732, 0.542786, 0.110542
0.0794869, 0.542759, 0.110786
0.0843002, 0.542732, 0.111024
0.0891129, 0.542705, 0.111268
0.0939291, 0.542702, 0.111298
0.0987512, 0.54273, 0.111043
0.103574, 0.542759, 0.110784
0.108397, 0.542788, 0.110519
0.113221, 0.542821, 0.11023
0.118049, 0.542866, 0.109816
0.122879, 0.542914, 0.109386
0.127711, 0.542973, 0.108853
0.132547, 0.543041, 0.108244
0.137384, 0.543108, 0.10764
0.142222, 0.543176, 0.107031
0.147062, 0.543244, 0.106417
0.151903, 0.543316, 0.105767
0.156747, 0.543389, 0.105112
0.161589, 0.543453, 0.104532
0.16643, 0.54351, 0.104016
0.171267, 0.543552, 0.103644
0.176091, 0.54355, 0.103654
0.180874, 0.543424, 0.104791
0.185662, 0.543324, 0.105694
0.190462, 0.54326, 0.106274
0.19527, 0.54322, 0.106631
0.200084, 0.5432, 0.106812
0.2049, 0.543187, 0.106929
0.209717, 0.543174, 0.107041
0.214503, 0.543085, 0.107844
0.219277, 0.542972, 0.108869
0.22403, 0.542811, 0.110315
0.22878, 0.542651, 0.111756
0.233574, 0.542597, 0.112239
0.238372, 0.542558, 0.112597
0.24317, 0.542517, 0.11296
0.247955, 0.542452, 0.113546
0.252734, 0.542375, 0.114245
0.257531, 0.542338, 0.114572
0.262342, 0.542335, 0.114606
0.267181, 0.542385, 0.114149
0.272035, 0.542466, 0.113428
0.276892, 0.542547, 0.112692
0.28175, 0.542629, 0.111951
0.286609, 0.542711, 0.111215
0.291482, 0.542814, 0.110284
0.29638, 0.542962, 0.108953
0.301293, 0.543131, 0.107437
0.306213, 0.543307, 0.105846
0.311137, 0.543484, 0.104251
0.31606, 0.543655, 0.10271
0.321011, 0.543868, 0.100797
0.326006, 0.544148, 0.0982738
0.331009, 0.544433, 0.0957065
0.336017, 0.544718, 0.0931334
0.34103, 0.545003, 0.0905666
0.346157, 0.54546, 0.0864573
0.351299, 0.545927, 0.0822444
0.35645, 0.546395, 0.0780268
0.361652, 0.546928, 0.0732298
0.366891, 0.547502, 0.0680614
0.372176, 0.548128, 0.0624223
0.37755, 0.548869, 0.0557485
0.383055, 0.549777, 0.047564
0.388615, 0.550741, 0.0388803
0.394429, 0.552038, 0.0272002
0.400068, 0.553059, 0.0180035
0.405352, 0.553572, 0.0133805
0.410438, 0.553805, 0.0112782
0.415519, 0.554025, 0.00930023
0.420681, 0.554347, 0.00639582
0.712876, 0.555829, -0.00695419
0.717023, 0.55522, -0.00147009
0.721397, 0.554795, 0.00236416
0.72585, 0.554434, 0.00561237
0.731541, 0.555019, 0.000346184
0.735592, 0.554359, 0.00628757
0.740112, 0.55406, 0.008986
0.745096, 0.554109, 0.00854397
0.74996, 0.554069, 0.0089016
-0.257865, 0.559935, 0.0150518
-0.252698, 0.55937, 0.0200844
-0.247518, 0.558754, 0.025569
-0.242418, 0.558296, 0.0296483
-0.237332, 0.557851, 0.0336041
-0.232225, 0.557339, 0.0381613
-0.227098, 0.556757, 0.0433483
-0.221937, 0.556062, 0.0495334
-0.216644, 0.554998, 0.05901
-0.211257, 0.553639, 0.0711036
-0.206109, 0.552857, 0.0780692
-0.201073, 0.552345, 0.0826268
-0.196025, 0.551773, 0.0877171
-0.191068, 0.551437, 0.0907068
-0.186118, 0.551103, 0.0936809
-0.181194, 0.550829, 0.0961246
-0.176356, 0.55081, 0.0962887
-0.171518, 0.550791, 0.0964575
-0.166681, 0.550773, 0.096621
-0.161781, 0.55054, 0.0986953
-0.156956, 0.550553, 0.0985804
-0.152132, 0.550572, 0.0984101
-0.147319, 0.550635, 0.097847
-0.142508, 0.550709, 0.0971904
-0.137694, 0.550775, 0.0966067
-0.132841, 0.550685, 0.0974088
-0.128017, 0.550713, 0.0971532
-0.123202, 0.550786, 0.0965042
-0.118377, 0.550817, 0.0962286
-0.113553, 0.550854, 0.0958967
-0.108729, 0.550891, 0.0955701
-0.103888, 0.550848, 0.0959539
-0.0990562, 0.550849, 0.0959439
-0.0942322, 0.550896, 0.0955224
-0.0894135, 0.55098, 0.0947771
-0.0845891, 0.551038, 0.0942655
-0.0797713, 0.551147, 0.0932913
-0.0749496, 0.551243, 0.0924406
-0.0701468, 0.551499, 0.0901546
-0.0653318, 0.551691, 0.088449
-0.0604916, 0.551683, 0.0885172
-0.0556515, 0.551675, 0.0885901
-0.0508115, 0.551668, 0.0886574
-0.0459707, 0.551648, 0.0888286
-0.0411242, 0.551548, 0.0897202
-0.0362804, 0.551462, 0.090488
-0.0314385, 0.551384, 0.0911808
-0.0265981, 0.551305, 0.0918875
-0.021759, 0.551227, 0.0925789
-0.0169212, 0.551149, 0.093276
-0.0120848, 0.551067, 0.094007
-0.00724977, 0.550985, 0.0947328
-0.00241619, 0.550903, 0.0954638
0.00241583, 0.55082, 0.096199
0.00724639, 0.550728, 0.0970187
0.0120751, 0.550623, 0.0979524
0.0169019, 0.550518, 0.0988908
0.021727, 0.550417, 0.0997939
0.0265504, 0.550317, 0.100682
0.0313719, 0.550217, 0.101575
0.0361918, 0.550116, 0.102472
0.0410099, 0.550016, 0.103364
0.0458262, 0.549915, 0.10426
0.0506409, 0.549816, 0.105143
0.055454, 0.549717, 0.106019
0.0602684, 0.549647, 0.106642
0.065082, 0.549581, 0.107229
0.0698953, 0.549522, 0.107762
0.0747112, 0.549489, 0.108051
0.0795267, 0.549457, 0.108335
0.0843417, 0.549426, 0.108613
0.0891568, 0.549399, 0.108856
0.0939751, 0.549393, 0.108906
0.0987997, 0.549423, 0.108642
0.103625, 0.549452, 0.108383
0.10845, 0.54948, 0.108128
0.113276, 0.54951, 0.107868
0.118103, 0.549539, 0.107604
0.12293, 0.549569, 0.107342
0.127758, 0.549599, 0.107077
0.13259, 0.549646, 0.106658
0.137428, 0.54971, 0.106084
0.142266, 0.549774, 0.105515
0.147106, 0.549839, 0.104939
0.151947, 0.549903, 0.10437
0.15679, 0.549971, 0.103765
0.161629, 0.550022, 0.103304
0.166467, 0.550063, 0.102938
0.171305, 0.550105, 0.102565
0.176132, 0.550111, 0.102516
0.180915, 0.549981, 0.103672
0.185704, 0.549876, 0.104604
0.190504, 0.549808, 0.105215
0.195318, 0.549783, 0.105432
0.200133, 0.549764, 0.105603
0.204951, 0.549752, 0.105711
0.20976, 0.549716, 0.106032
0.214546, 0.549624, 0.106854
0.21931, 0.549481, 0.108126
0.224064, 0.549318, 0.109573
0.228829, 0.549189, 0.110725
0.233608, 0.5491, 0.111516
0.238407, 0.549057, 0.111894
0.243205, 0.549017, 0.112257
0.247986, 0.548941, 0.112932
0.252785, 0.548904, 0.113264
0.257598, 0.5489, 0.113294
0.262411, 0.548896, 0.113328
0.267255, 0.548957, 0.112791
0.272112, 0.54904, 0.11205
0.27697, 0.549123, 0.111314
0.281844, 0.549235, 0.110315
0.286722, 0.54935, 0.109291
0.291625, 0.549508, 0.107885
0.296541, 0.549686, 0.106296
0.301461, 0.549864, 0.104711
0.306384, 0.550043, 0.103121
0.311305, 0.550213, 0.101605
0.316224, 0.550374, 0.100173
0.321194, 0.550619, 0.0979934
0.326191, 0.550901, 0.0954809
0.331195, 0.551185, 0.0929532
0.336206, 0.551474, 0.0903816
0.341257, 0.55182, 0.0872989
0.346395, 0.552294, 0.0830817
0.351541, 0.552768, 0.0788593
0.356703, 0.553254, 0.0745335
0.361935, 0.553834, 0.0693703
0.367179, 0.554417, 0.0641832
0.372511, 0.555114, 0.057971
0.377899, 0.555877, 0.0511799
0.38339, 0.556771, 0.0432248
0.389097, 0.557951, 0.0327196
0.39476, 0.559039, 0.0230327
0.400236, 0.559839, 0.0159078
0.405308, 0.560061, 0.0139298
0.410279, 0.560142, 0.0132146
0.415268, 0.560244, 0.0123062
0.420345, 0.56046, 0.0103831
0.425433, 0.560686, 0.00836515
0.430791, 0.561259, 0.00326395
0.698569, 0.562805, -0.0104971
0.702705, 0.562164, -0.00478888
0.706827, 0.561521, 0.000932217
0.711203, 0.561087, 0.00479698
0.715434, 0.560547, 0.00960922
0.719875, 0.560176, 0.0129108
0.724566, 0.560003, 0.0144448
0.729375, 0.559924, 0.0151477
0.734402, 0.560012, 0.0143709
0.740042, 0.560564, 0.00945854
0.745075, 0.560651, 0.00868082
0.750529, 0.561051, 0.00511742
-0.257817, 0.566379, 0.0159798
-0.252658, 0.565824, 0.0208626
-0.247499, 0.565245, 0.0259581
-0.24243, 0.564855, 0.0293927
-0.237409, 0.56456, 0.0319881
-0.232313, 0.564072, 0.0362763
-0.227193, 0.563503, 0.0412836
-0.222098, 0.562974, 0.0459394
-0.21702, 0.562465, 0.0504222
-0.211666, 0.561199, 0.0615597
-0.206355, 0.55999, 0.0721974
-0.201257, 0.559316, 0.078135
-0.196198, 0.55872, 0.0833731
-0.191208, 0.558294, 0.0871258
-0.186268, 0.557998, 0.0897322
-0.181355, 0.557766, 0.0917683
-0.176468, 0.557607, 0.0931735
-0.171615, 0.557547, 0.0936995
-0.166731, 0.55738, 0.0951633
-0.161892, 0.55736, 0.0953417
-0.157033, 0.557266, 0.0961695
-0.152207, 0.557285, 0.0959992
-0.14738, 0.557304, 0.0958338
-0.142552, 0.557324, 0.0956631
-0.137725, 0.557344, 0.0954876
-0.132896, 0.557357, 0.0953655
-0.128066, 0.557368, 0.0952687
-0.123248, 0.557436, 0.0946698
-0.118431, 0.55751, 0.0940261
-0.113594, 0.557498, 0.0941319
-0.108768, 0.557535, 0.0938048
-0.103928, 0.557504, 0.094079
-0.099085, 0.557454, 0.0945172
-0.0942602, 0.557505, 0.0940652
-0.08944, 0.55759, 0.0933199
-0.0846221, 0.5577, 0.0923514
-0.079803, 0.557815, 0.0913377
-0.0749849, 0.557952, 0.0901294
-0.0701827, 0.558235, 0.0876451
-0.0653722, 0.558488, 0.0854135
-0.0605332, 0.558519, 0.085144
-0.0556896, 0.55851, 0.0852256
-0.0508462, 0.558501, 0.0853033
-0.0460029, 0.558491, 0.0853858
-0.0411592, 0.558474, 0.0855417
-0.0363124, 0.558405, 0.0861497
-0.031466, 0.558321, 0.0868816
-0.0266212, 0.558238, 0.0876188
-0.0217777, 0.558155, 0.0883508
-0.0169357, 0.558071, 0.0890861
-0.0120953, 0.557997, 0.0897379
-0.00725585, 0.557896, 0.0906229
-0.00241815, 0.557797, 0.0914927
0.00241772, 0.557699, 0.0923572
0.00725221, 0.557616, 0.0930872
0.0120853, 0.557534, 0.093812
0.0169167, 0.557447, 0.0945811
0.0217461, 0.557343, 0.0954943
0.0265737, 0.557241, 0.0963922
0.0313995, 0.55714, 0.0972748
0.0362237, 0.557041, 0.0981522
0.0410462, 0.55694, 0.0990343
0.0458669, 0.55684, 0.0999212
0.0506858, 0.55674, 0.100802
0.0555032, 0.55664, 0.101679
0.0603212, 0.556564, 0.102352
0.065139, 0.556497, 0.102939
0.0699558, 0.556431, 0.103521
0.0747714, 0.556364, 0.104108
0.079586, 0.556298, 0.10469
0.0843993, 0.556231, 0.105277
0.0892113, 0.556164, 0.105867
0.0940253, 0.556115, 0.106294
0.0988482, 0.556122, 0.106239
0.103676, 0.556151, 0.10598
0.108504, 0.556181, 0.105715
0.113332, 0.556212, 0.105446
0.118161, 0.556242, 0.105181
0.122991, 0.556272, 0.10492
0.127821, 0.556303, 0.104645
0.132653, 0.556337, 0.104345
0.137485, 0.556373, 0.10403
0.142323, 0.556426, 0.103559
0.147164, 0.55649, 0.102995
0.152008, 0.556556, 0.102415
0.156851, 0.55662, 0.101851
0.161685, 0.556646, 0.101628
0.166519, 0.556671, 0.101409
0.171353, 0.556697, 0.101176
0.176179, 0.556695, 0.101197
0.180957, 0.556543, 0.102531
0.185745, 0.556431, 0.103514
0.190543, 0.556352, 0.104213
0.195366, 0.55635, 0.104232
0.200184, 0.556334, 0.104374
0.205005, 0.556327, 0.104432
0.209803, 0.556258, 0.10504
0.214586, 0.556156, 0.105941
0.219344, 0.555992, 0.107383
0.224099, 0.55583, 0.108809
0.228878, 0.555733, 0.109664
0.233659, 0.555643, 0.110455
0.23844, 0.555558, 0.111199
0.243236, 0.55551, 0.111621
0.248036, 0.555472, 0.11196
0.25285, 0.555468, 0.111994
0.257665, 0.555464, 0.112023
0.26249, 0.555483, 0.111858
0.267356, 0.555587, 0.110945
0.27223, 0.555703, 0.109927
0.277106, 0.555819, 0.108903
0.281985, 0.555936, 0.107875
0.286878, 0.556077, 0.106633
0.291787, 0.556243, 0.105168
0.296707, 0.556425, 0.103569
0.301629, 0.556606, 0.101974
0.306547, 0.556774, 0.100503
0.311466, 0.556937, 0.0990677
0.316387, 0.557098, 0.0976467
0.321378, 0.557377, 0.0951891
0.326378, 0.557663, 0.0926766
0.331383, 0.557949, 0.0901594
0.336394, 0.558237, 0.0876279
0.341492, 0.558658, 0.0839219
0.346633, 0.559137, 0.0797052
0.351794, 0.559635, 0.075325
0.357011, 0.560207, 0.0702868
0.362265, 0.560822, 0.064877
0.367604, 0.561549, 0.0584822
0.372993, 0.562333, 0.0515771
0.378336, 0.563029, 0.0454607
0.383767, 0.563836, 0.0383596
0.389501, 0.565062, 0.0275683
0.395126, 0.566102, 0.0184183
0.400322, 0.566508, 0.0148411
0.405288, 0.566584, 0.0141706
0.410155, 0.566522, 0.0147228
0.41512, 0.566593, 0.0140915
0.420117, 0.566707, 0.0130887
0.425118, 0.566824, 0.0120616
0.430246, 0.567106, 0.00958395
0.435435, 0.56746, 0.00646782
0.688259, 0.569027, -0.00732088
0.69218, 0.568195, -7.15256e-06
0.696719, 0.56788, 0.00277185
0.701413, 0.567693, 0.0044136
0.705781, 0.567248, 0.00833178
0.710156, 0.566814, 0.0121455
0.714682, 0.566506, 0.0148611
0.719556, 0.566476, 0.0151219
0.724319, 0.56636, 0.0161448
0.729167, 0.566311, 0.0165715
0.734874, 0.566926, 0.0111628
0.740228, 0.567262, 0.00820827
0.745259, 0.567348, 0.00745106
-0.25778, 0.572844, 0.0166965
-0.252611, 0.572259, 0.0217867
-0.247498, 0.571777, 0.0259795
-0.242455, 0.571442, 0.0288968
-0.237436, 0.571151, 0.0314226
-0.232392, 0.570786, 0.0345988
-0.227289, 0.570258, 0.0391889
-0.222213, 0.569776, 0.0433869
-0.217179, 0.569383, 0.0468068
-0.212101, 0.568853, 0.0514121
-0.206707, 0.567431, 0.0637841
-0.201563, 0.566644, 0.0706344
-0.196478, 0.565985, 0.0763674
-0.191424, 0.565387, 0.0815687
-0.186473, 0.565069, 0.0843339
-0.181554, 0.564834, 0.0863791
-0.176639, 0.564598, 0.088429
-0.171756, 0.564456, 0.0896702
-0.166916, 0.564452, 0.089704
-0.162073, 0.564433, 0.0898619
-0.157188, 0.564264, 0.0913353
-0.15231, 0.56411, 0.0926743
-0.147465, 0.564072, 0.0930047
-0.142636, 0.564097, 0.0927849
-0.137807, 0.564123, 0.0925589
-0.132976, 0.564142, 0.0923977
-0.128131, 0.564097, 0.0927877
-0.123297, 0.564106, 0.0927148
-0.118475, 0.564166, 0.0921903
-0.113644, 0.564189, 0.0919881
-0.108807, 0.564183, 0.0920386
-0.103967, 0.564164, 0.0922041
-0.0991221, 0.564109, 0.0926814
-0.0942943, 0.564154, 0.092289
-0.0894795, 0.564285, 0.0911565
-0.0846624, 0.564415, 0.0900192
-0.0798411, 0.564533, 0.0889955
-0.075021, 0.564674, 0.0877681
-0.0702171, 0.564965, 0.0852337
-0.0654075, 0.565251, 0.0827541
-0.0605719, 0.565337, 0.0819974
-0.0557327, 0.565403, 0.0814242
-0.0508854, 0.565393, 0.081512
-0.0460385, 0.565385, 0.081584
-0.0411913, 0.565371, 0.0817099
-0.0363438, 0.565349, 0.0819006
-0.0314967, 0.565326, 0.0820966
-0.0266482, 0.565263, 0.0826445
-0.0217998, 0.565179, 0.0833759
-0.0169528, 0.565094, 0.0841122
-0.0121074, 0.565014, 0.0848131
-0.0072636, 0.564949, 0.0853796
-0.00242088, 0.564883, 0.0859513
0.00242046, 0.564786, 0.0867963
0.00726022, 0.564686, 0.0876646
0.0120982, 0.564584, 0.0885487
0.0169345, 0.564485, 0.0894175
0.021769, 0.56438, 0.0903301
0.0266009, 0.56426, 0.0913672
0.0314305, 0.564138, 0.0924277
0.0362581, 0.564016, 0.0934939
0.0410836, 0.563893, 0.0945649
0.0459076, 0.563777, 0.0955706
0.0507309, 0.563676, 0.0964522
0.0555523, 0.563574, 0.0973387
0.0603742, 0.563492, 0.0980506
0.0651962, 0.563425, 0.0986376
0.0700167, 0.563353, 0.0992603
0.0748361, 0.563282, 0.0998769
0.0796541, 0.563211, 0.100499
0.0844709, 0.563139, 0.101124
0.0892865, 0.563067, 0.101745
0.0941024, 0.563006, 0.102281
0.098928, 0.563005, 0.102286
0.103754, 0.563004, 0.102295
0.108579, 0.563004, 0.102299
0.113405, 0.563004, 0.102297
0.118231, 0.563004, 0.102301
0.123056, 0.563003, 0.102309
0.127884, 0.563013, 0.102222
0.132719, 0.563048, 0.101912
0.137553, 0.563083, 0.101606
0.142389, 0.563119, 0.101295
0.147225, 0.563154, 0.100989
0.152068, 0.563214, 0.100469
0.156913, 0.563279, 0.0999041
0.161747, 0.563299, 0.0997314
0.166582, 0.563319, 0.0995531
0.171418, 0.563345, 0.0993309
0.176249, 0.563352, 0.0992703
0.181032, 0.563211, 0.100496
0.185822, 0.563098, 0.101479
0.190617, 0.563004, 0.102297
0.195437, 0.562988, 0.102435
0.200259, 0.562976, 0.102537
0.20507, 0.562937, 0.102883
0.209858, 0.562837, 0.10375
0.214623, 0.562681, 0.105107
0.21938, 0.562512, 0.106578
0.224144, 0.56237, 0.107815
0.228927, 0.562277, 0.108621
0.233708, 0.562185, 0.109421
0.238488, 0.562094, 0.110215
0.243297, 0.562071, 0.11041
0.248125, 0.562096, 0.110192
0.252955, 0.562122, 0.109968
0.257784, 0.562146, 0.109759
0.262615, 0.562173, 0.109526
0.267489, 0.562289, 0.108512
0.272366, 0.562406, 0.107495
0.277245, 0.562526, 0.106452
0.282138, 0.562669, 0.105216
0.287033, 0.56281, 0.103983
0.291949, 0.562988, 0.102439
0.296872, 0.563171, 0.100841
0.301788, 0.563338, 0.0993953
0.306706, 0.563502, 0.0979648
0.311627, 0.563666, 0.096539
0.316564, 0.563854, 0.0949001
0.321562, 0.564144, 0.0923834
0.326577, 0.564454, 0.0896835
0.331608, 0.564783, 0.0868206
0.336634, 0.565092, 0.0841303
0.341786, 0.565604, 0.0796819
0.346946, 0.566112, 0.0752578
0.352134, 0.566652, 0.0705614
0.357392, 0.567288, 0.0650287
0.362725, 0.568025, 0.058619
0.368076, 0.56877, 0.0521364
0.373405, 0.569462, 0.0461144
0.378766, 0.570186, 0.0398211
0.384459, 0.571383, 0.0294023
0.390105, 0.572481, 0.0198522
0.395552, 0.573263, 0.0130515
0.400726, 0.573637, 0.00980139
0.405471, 0.573394, 0.0119138
0.410232, 0.573178, 0.013793
0.415096, 0.573111, 0.01437
0.419955, 0.573038, 0.0150108
0.424947, 0.573147, 0.0140624
0.429948, 0.573264, 0.0130401
0.435033, 0.573489, 0.0110822
0.440179, 0.57379, 0.00846577
0.687481, 0.574954, -0.00166082
0.691692, 0.574358, 0.00352478
0.69632, 0.574116, 0.00563383
0.700717, 0.573686, 0.00937033
0.705168, 0.573307, 0.0126677
0.70961, 0.572927, 0.0159783
0.714471, 0.572886, 0.0163331
0.71944, 0.572933, 0.0159245
0.724305, 0.572897, 0.0162382
0.729463, 0.573091, 0.0145516
0.7353, 0.573813, 0.00826931
0.740454, 0.573995, 0.00668097
-0.257825, 0.579494, 0.0158138
-0.252599, 0.578771, 0.0220251
-0.247523, 0.578369, 0.0254831
-0.242479, 0.57803, 0.0283999
-0.237457, 0.57773, 0.0309854
-0.232452, 0.57746, 0.0333076
-0.227371, 0.576985, 0.0373902
-0.222327, 0.576585, 0.040834
-0.217262, 0.57611, 0.0449176
-0.212276, 0.575828, 0.0473394
-0.207183, 0.575238, 0.0524154
-0.202038, 0.574468, 0.0590348
-0.196965, 0.573872, 0.0641613
-0.191811, 0.573005, 0.0716248
-0.186768, 0.572432, 0.0765529
-0.181847, 0.572211, 0.0784483
-0.17689, 0.571864, 0.0814314
-0.171917, 0.571441, 0.0850744
-0.167037, 0.571315, 0.0861602
-0.162194, 0.571311, 0.0861893
-0.157352, 0.571307, 0.0862226
-0.152509, 0.571303, 0.0862603
-0.14763, 0.571159, 0.0874944
-0.142773, 0.571094, 0.0880585
-0.137923, 0.571051, 0.088429
-0.133074, 0.57101, 0.0887837
-0.128217, 0.57093, 0.0894709
-0.123369, 0.570884, 0.0898652
-0.118524, 0.570851, 0.0901451
-0.113697, 0.570903, 0.0897045
-0.108852, 0.570869, 0.0899935
-0.104011, 0.570851, 0.0901484
-0.0991794, 0.570887, 0.0898414
-0.0943474, 0.570923, 0.0895286
-0.0895218, 0.571004, 0.0888333
-0.0847024, 0.571136, 0.0876961
-0.0798792, 0.571257, 0.0866523
-0.0750586, 0.571414, 0.0853057
-0.0702507, 0.571696, 0.0828819
-0.0654396, 0.571991, 0.0803423
-0.0606069, 0.572129, 0.0791588
-0.0557648, 0.572195, 0.0785856
-0.0509218, 0.572264, 0.0779972
-0.0460741, 0.572289, 0.0777817
-0.0412234, 0.572278, 0.077878
-0.0363721, 0.572255, 0.0780687
-0.0315213, 0.572234, 0.0782547
-0.0266709, 0.572211, 0.0784545
-0.0218208, 0.572189, 0.07864
-0.01697, 0.572132, 0.0791273
-0.0121196, 0.572047, 0.0798583
-0.00727083, 0.571975, 0.0804844
-0.00242329, 0.571909, 0.0810461
0.00242301, 0.571842, 0.0816221
0.00726831, 0.571776, 0.0821929
0.012112, 0.571687, 0.0829573
0.0169538, 0.571585, 0.0838361
0.0217938, 0.571482, 0.0847187
0.0266315, 0.571366, 0.0857153
0.0314668, 0.571245, 0.0867572
0.0363003, 0.571125, 0.0877934
0.0411314, 0.571, 0.0888638
0.0459604, 0.570876, 0.0899296
0.0507874, 0.570753, 0.0909891
0.0556122, 0.570629, 0.0920544
0.0604356, 0.570512, 0.0930643
0.0652586, 0.570409, 0.0939498
0.0700799, 0.570306, 0.0948396
0.0748995, 0.570203, 0.0957241
0.0797213, 0.570128, 0.0963655
0.0845421, 0.570055, 0.096992
0.0893618, 0.569983, 0.0976124
0.09418, 0.56991, 0.098238
0.0990091, 0.569906, 0.0982728
0.103839, 0.569906, 0.0982718
0.108669, 0.569906, 0.0982761
0.113498, 0.569905, 0.0982847
0.118327, 0.569904, 0.0982976
0.123157, 0.569903, 0.0983052
0.127986, 0.569902, 0.0983086
0.132818, 0.569912, 0.0982265
0.13765, 0.569921, 0.0981498
0.142483, 0.56993, 0.0980673
0.147315, 0.569939, 0.0979891
0.152147, 0.569949, 0.0979066
0.156977, 0.569948, 0.0979176
0.16181, 0.569957, 0.0978346
0.166646, 0.569978, 0.0976562
0.171483, 0.569998, 0.0974832
0.176318, 0.570015, 0.0973344
0.181111, 0.569896, 0.098361
0.185904, 0.569784, 0.0993233
0.190704, 0.569698, 0.100062
0.195532, 0.5697, 0.100051
0.200355, 0.569683, 0.100194
0.205148, 0.569589, 0.101005
0.20991, 0.569412, 0.102528
0.214671, 0.56924, 0.104003
0.219402, 0.569, 0.10607
0.22418, 0.568886, 0.107049
0.228963, 0.568791, 0.107864
0.233745, 0.568698, 0.108664
0.238525, 0.568606, 0.109458
0.243383, 0.568698, 0.10867
0.248243, 0.568791, 0.107867
0.253075, 0.568816, 0.107654
0.257907, 0.568841, 0.107435
0.262746, 0.568881, 0.107092
0.267622, 0.568999, 0.10608
0.272503, 0.56912, 0.105032
0.277396, 0.569265, 0.103792
0.282291, 0.569407, 0.102565
0.287191, 0.569555, 0.101294
0.292111, 0.569738, 0.0997205
0.297026, 0.569904, 0.0982904
0.301945, 0.570071, 0.0968547
0.306877, 0.570259, 0.0952363
0.311825, 0.570471, 0.0934148
0.316807, 0.570736, 0.0911417
0.321831, 0.571068, 0.0882792
0.326861, 0.571402, 0.0854111
0.331837, 0.571631, 0.0834398
0.336939, 0.572069, 0.0796709
0.342097, 0.572587, 0.075213
0.347263, 0.573105, 0.0707603
0.352529, 0.573772, 0.0650249
0.357846, 0.5745, 0.0587597
0.36316, 0.575206, 0.0526886
0.368503, 0.575939, 0.0463858
0.374037, 0.576947, 0.0377202
0.37955, 0.577896, 0.0295558
0.385187, 0.579007, 0.0200019
0.390711, 0.579923, 0.0121169
0.405974, 0.580665, 0.00573587
0.410569, 0.580205, 0.00969458
0.415234, 0.579854, 0.0127168
0.420007, 0.579658, 0.0143971
0.424865, 0.579584, 0.0150323
0.429743, 0.579539, 0.0154247
0.434777, 0.579703, 0.0140114
0.439814, 0.579867, 0.0126028
0.445075, 0.580319, 0.00871515
0.682871, 0.581796, -0.0039897
0.686875, 0.581013, 0.00274658
0.691366, 0.580649, 0.00587368
0.695761, 0.580211, 0.00964499
0.700224, 0.579835, 0.0128784
0.704687, 0.579464, 0.0160666
0.709509, 0.579392, 0.0166917
0.7146, 0.579538, 0.0154324
0.719473, 0.579508, 0.0156927
0.724425, 0.57954, 0.0154171
0.73031, 0.580314, 0.00875616
0.735579, 0.580591, 0.0063777
0.740682, 0.580734, 0.00514412
-0.257871, 0.586145, 0.0149307
-0.252651, 0.58543, 0.0210118
-0.24756, 0.584993, 0.0247273
-0.242503, 0.584619, 0.0279117
-0.237477, 0.584308, 0.0305562
-0.232482, 0.58406, 0.0326695
-0.227439, 0.583679, 0.0359082
-0.222385, 0.583251, 0.0395503
-0.217369, 0.582907, 0.0424719
-0.212357, 0.582557, 0.0454493
-0.207353, 0.582215, 0.0483608
-0.202313, 0.581751, 0.0523
-0.197319, 0.581402, 0.0552721
-0.192276, 0.580884, 0.0596781
-0.18731, 0.580579, 0.0622725
-0.182123, 0.579554, 0.0709853
-0.177178, 0.579267, 0.0734315
-0.172258, 0.579044, 0.0753264
-0.167317, 0.578739, 0.0779214
-0.162363, 0.578369, 0.0810661
-0.157504, 0.578321, 0.0814772
-0.152644, 0.578271, 0.081902
-0.147786, 0.578221, 0.0823216
-0.142928, 0.578173, 0.082737
-0.138077, 0.578146, 0.0829678
-0.133228, 0.578131, 0.0830941
-0.12838, 0.578114, 0.0832348
-0.123515, 0.578019, 0.0840459
-0.118624, 0.57779, 0.0859938
-0.113758, 0.577665, 0.0870523
-0.10891, 0.577624, 0.0874004
-0.104076, 0.577662, 0.087079
-0.0992416, 0.577699, 0.086762
-0.0944065, 0.577736, 0.0864496
-0.0895709, 0.577772, 0.0861406
-0.0847425, 0.577863, 0.085371
-0.0799175, 0.577989, 0.0842981
-0.0750962, 0.57816, 0.0828428
-0.0702841, 0.57843, 0.0805478
-0.0654714, 0.578736, 0.07795
-0.0606419, 0.578927, 0.0763187
-0.0557971, 0.578996, 0.075736
-0.0509512, 0.579064, 0.0751581
-0.0461041, 0.579132, 0.0745745
-0.0412555, 0.579195, 0.0740452
-0.0364005, 0.579173, 0.0742264
-0.0315459, 0.579152, 0.0744119
-0.0266917, 0.579128, 0.0746117
-0.0218378, 0.579106, 0.0747972
-0.0169843, 0.579083, 0.0749965
-0.0121312, 0.579061, 0.075181
-0.0072781, 0.579015, 0.0755687
-0.00242571, 0.578948, 0.0761404
0.00242543, 0.578882, 0.0767064
0.00727556, 0.578813, 0.0772872
0.0121246, 0.578747, 0.0778527
0.0169725, 0.57868, 0.0784225
0.0218187, 0.578598, 0.0791168
0.0266622, 0.578488, 0.0800543
0.0315031, 0.578366, 0.0810957
0.036342, 0.578243, 0.0821414
0.041179, 0.578121, 0.0831723
0.0460139, 0.577999, 0.0842171
0.0508465, 0.577874, 0.0852776
0.0556769, 0.577749, 0.0863423
0.0605053, 0.577623, 0.0874114
0.0653337, 0.577518, 0.0883074
0.0701605, 0.577413, 0.0891972
0.0749857, 0.577309, 0.0900822
0.079809, 0.577204, 0.0909715
0.0846307, 0.5771, 0.0918555
0.0894505, 0.576996, 0.0927444
0.0942692, 0.576896, 0.0935988
0.0990946, 0.576844, 0.0940404
0.103924, 0.57682, 0.0942378
0.108757, 0.576816, 0.0942717
0.113591, 0.576815, 0.0942802
0.118424, 0.576814, 0.0942941
0.123258, 0.576813, 0.0943022
0.128091, 0.576813, 0.0943046
0.132927, 0.576822, 0.0942235
0.137763, 0.576831, 0.0941463
0.142595, 0.576827, 0.094183
0.147427, 0.576818, 0.0942545
0.152259, 0.576811, 0.0943203
0.157089, 0.576798, 0.0944309
0.161916, 0.576776, 0.0946155
0.166743, 0.576755, 0.0947952
0.17157, 0.576734, 0.0949688
0.176395, 0.576705, 0.0952172
0.18119, 0.576588, 0.0962148
0.185989, 0.576486, 0.0970778
0.190791, 0.5764, 0.097816
0.195627, 0.576415, 0.0976863
0.200431, 0.576341, 0.0983148
0.205193, 0.576151, 0.0999308
0.209953, 0.575964, 0.101521
0.214677, 0.575688, 0.103871
0.21944, 0.575528, 0.105232
0.224218, 0.575413, 0.106211
0.228998, 0.575307, 0.107106
0.233781, 0.575213, 0.107905
0.238601, 0.575213, 0.107906
0.243463, 0.575313, 0.107059
0.248327, 0.575412, 0.106216
0.253192, 0.575511, 0.105377
0.258029, 0.575542, 0.10511
0.262877, 0.575595, 0.104658
0.267758, 0.575719, 0.103606
0.272651, 0.575864, 0.10237
0.277546, 0.576009, 0.10114
0.282444, 0.576154, 0.0999041
0.287354, 0.576318, 0.0985136
0.292292, 0.576532, 0.0966926
0.297233, 0.576745, 0.0948763
0.302179, 0.576959, 0.0930557
0.307127, 0.577173, 0.0912385
0.312079, 0.577387, 0.089417
0.317082, 0.577686, 0.0868773
0.322094, 0.577993, 0.0842624
0.327066, 0.578221, 0.0823274
0.33209, 0.578532, 0.0796828
0.337294, 0.579143, 0.0744877
0.342519, 0.579772, 0.0691385
0.347823, 0.580516, 0.0628047
0.353158, 0.58129, 0.0562282
0.358529, 0.582102, 0.0493207
0.363938, 0.582953, 0.0420823
0.369394, 0.583854, 0.0344143
0.374911, 0.584829, 0.0261273
0.380613, 0.586062, 0.0156384
0.415714, 0.587083, 0.00695419
0.420324, 0.586652, 0.0106239
0.424894, 0.586173, 0.0146937
0.429732, 0.586072, 0.0155511
0.434584, 0.585993, 0.0162253
0.439634, 0.586179, 0.0146484
0.444761, 0.586462, 0.0122352
0.450067, 0.586972, 0.00789881
0.6783, 0.588682, -0.00664091
0.682194, 0.587787, 0.000966072
0.686494, 0.587252, 0.00551653
0.690764, 0.586698, 0.0102272
0.695327, 0.586401, 0.0127573
0.699884, 0.586102, 0.0153017
0.704571, 0.585915, 0.0168862
0.709738, 0.586128, 0.0150809
0.714685, 0.586156, 0.0148358
0.719557, 0.586124, 0.0151153
0.725086, 0.586623, 0.0108681
0.730658, 0.587151, 0.00638103
0.735794, 0.587323, 0.00491667
-0.257987, 0.59296, 0.0126977
-0.252704, 0.592097, 0.0199571
-0.247591, 0.591603, 0.0241089
-0.242545, 0.591254, 0.0270448
-0.237496, 0.590883, 0.0301647
-0.232502, 0.590637, 0.032238
-0.227498, 0.590353, 0.0346241
-0.22239, 0.589781, 0.0394354
-0.217402, 0.58951, 0.0417118
-0.21243, 0.589268, 0.043746
-0.207453, 0.589002, 0.0459828
-0.202439, 0.588619, 0.0492072
-0.197443, 0.588266, 0.0521784
-0.192462, 0.587944, 0.0548863
-0.187526, 0.587745, 0.0565577
-0.182598, 0.58756, 0.0581145
-0.177634, 0.587247, 0.0607486
-0.172615, 0.586728, 0.065114
-0.167639, 0.586331, 0.0684519
-0.162675, 0.585952, 0.0716362
-0.15773, 0.585623, 0.0744085
-0.152857, 0.585546, 0.0750518
-0.147997, 0.585519, 0.0752831
-0.143138, 0.585492, 0.0755095
-0.13828, 0.585465, 0.0757399
-0.133405, 0.585365, 0.076581
-0.128534, 0.585276, 0.0773268
-0.123677, 0.585242, 0.077611
-0.118812, 0.58517, 0.0782185
-0.113916, 0.58493, 0.0802398
-0.109032, 0.584735, 0.0818787
-0.104174, 0.584669, 0.0824304
-0.0993072, 0.58454, 0.0835133
-0.0944655, 0.584556, 0.0833797
-0.089627, 0.584594, 0.0830617
-0.0847879, 0.584632, 0.0827384
-0.0799575, 0.58474, 0.0818338
-0.075134, 0.584914, 0.0803685
-0.0703169, 0.585166, 0.0782523
-0.0655016, 0.585471, 0.0756845
-0.0606764, 0.585729, 0.0735183
-0.0558309, 0.585819, 0.0727572
-0.0509822, 0.58589, 0.0721588
-0.0461324, 0.585962, 0.0715556
-0.0412813, 0.586033, 0.0709572
-0.0364265, 0.586062, 0.0707111
-0.0315684, 0.586039, 0.0709062
-0.0267107, 0.586015, 0.0711064
-0.0218533, 0.585992, 0.0713015
-0.0169964, 0.58597, 0.0714908
-0.012141, 0.586008, 0.0711689
-0.00728508, 0.586047, 0.0708413
-0.00242814, 0.586004, 0.0712042
0.00242786, 0.585935, 0.0717802
0.00728285, 0.585867, 0.072351
0.0121367, 0.585799, 0.0729265
0.0169894, 0.585731, 0.0734973
0.0218427, 0.585707, 0.0737042
0.026696, 0.585693, 0.0738173
0.0315425, 0.585559, 0.0749483
0.0363856, 0.585404, 0.0762515
0.0412264, 0.585254, 0.0775108
0.0460668, 0.58513, 0.0785561
0.0509052, 0.585006, 0.0795965
0.0557417, 0.584883, 0.0806313
0.0605756, 0.584756, 0.0817003
0.0654088, 0.584642, 0.082655
0.0702413, 0.584537, 0.0835447
0.075072, 0.584431, 0.0844302
0.0799015, 0.58433, 0.0852799
0.0847293, 0.584229, 0.086134
0.0895554, 0.584127, 0.0869932
0.0943799, 0.584026, 0.0878372
0.0992072, 0.583951, 0.0884671
0.104039, 0.583909, 0.0888238
0.108872, 0.583877, 0.0890961
0.113706, 0.583852, 0.0893035
0.11854, 0.583828, 0.0895057
0.123373, 0.583803, 0.0897121
0.128205, 0.583777, 0.0899339
0.133032, 0.583729, 0.0903387
0.137862, 0.583698, 0.0905995
0.142697, 0.583689, 0.0906758
0.147532, 0.58368, 0.0907469
0.152368, 0.583672, 0.0908136
0.1572, 0.583657, 0.0909438
0.162032, 0.583636, 0.0911188
0.166857, 0.583597, 0.0914469
0.171682, 0.583559, 0.0917702
0.176506, 0.583516, 0.0921273
0.181298, 0.583378, 0.0932932
0.186094, 0.583255, 0.0943251
0.190887, 0.583132, 0.0953608
0.195707, 0.583095, 0.0956674
0.200473, 0.582901, 0.0972986
0.205222, 0.582668, 0.0992613
0.209949, 0.582388, 0.101616
0.214697, 0.582174, 0.103418
0.219478, 0.582058, 0.104393
0.224256, 0.581941, 0.105372
0.229034, 0.581826, 0.106346
0.233818, 0.581732, 0.107135
0.23868, 0.581832, 0.106293
0.243543, 0.581932, 0.105456
0.248409, 0.582032, 0.104613
0.253276, 0.582133, 0.103765
0.258145, 0.582233, 0.102922
0.263009, 0.582321, 0.102183
0.26791, 0.582482, 0.100824
0.272827, 0.582674, 0.0992117
0.277747, 0.582866, 0.0975952
0.28267, 0.583058, 0.0959826
0.2876, 0.583256, 0.0943155
0.292539, 0.583465, 0.0925541
0.297481, 0.583675, 0.0907879
0.302427, 0.583886, 0.0890164
0.307378, 0.584098, 0.0872302
0.312334, 0.584315, 0.0854096
0.317327, 0.584592, 0.0830779
0.322409, 0.585023, 0.079453
0.327499, 0.585455, 0.0758243
0.33267, 0.586017, 0.0710902
0.337943, 0.586741, 0.0650043
0.343245, 0.587493, 0.0586767
0.348604, 0.58832, 0.0517201
0.354027, 0.589232, 0.0440559
0.359451, 0.59012, 0.0365858
0.365003, 0.59119, 0.0275865
0.420793, 0.593868, 0.00505972
0.425134, 0.593058, 0.0118694
0.429778, 0.592685, 0.0150132
0.434559, 0.592506, 0.0165181
0.439446, 0.592474, 0.0167813
0.444529, 0.592705, 0.0148435
0.449748, 0.59311, 0.0114369
0.455266, 0.593896, 0.00482082
0.673697, 0.595552, -0.00910187
0.677648, 0.594688, -0.00183344
0.681716, 0.593938, 0.00447369
0.685976, 0.593365, 0.00928783
0.690468, 0.593, 0.0123644
0.695084, 0.592745, 0.0145006
0.699757, 0.592543, 0.0162082
0.704817, 0.592669, 0.0151467
0.709895, 0.592807, 0.0139813
0.714781, 0.592785, 0.0141683
0.719836, 0.592902, 0.0131803
0.725715, 0.593692, 0.00653553
0.730961, 0.593957, 0.00431013
0.736279, 0.594276, 0.00162745
-0.258145, 0.599879, 0.00964069
-0.252758, 0.598767, 0.0188918
-0.247615, 0.598199, 0.0236177
-0.24259, 0.597899, 0.0261168
-0.237535, 0.597509, 0.0293555
-0.232517, 0.597201, 0.0319242
-0.22753, 0.596962, 0.0339131
-0.222455, 0.596474, 0.0379701
-0.217407, 0.596038, 0.0415959
-0.212437, 0.595801, 0.0435696
-0.20748, 0.59559, 0.04532
-0.202521, 0.595364, 0.0472045
-0.197575, 0.595164, 0.0488653
-0.192589, 0.59483, 0.0516429
-0.187644, 0.594612, 0.0534625
-0.182707, 0.594408, 0.0551581
-0.177779, 0.594219, 0.0567298
-0.172863, 0.594063, 0.0580282
-0.167953, 0.593922, 0.0592022
-0.163046, 0.593781, 0.0603714
-0.158105, 0.593502, 0.0626965
-0.153167, 0.593218, 0.0650563
-0.14829, 0.593158, 0.0655551
-0.143409, 0.593082, 0.0661879
-0.138517, 0.592952, 0.0672712
-0.133628, 0.592822, 0.0683503
-0.12874, 0.592691, 0.0694432
-0.123842, 0.592498, 0.0710483
-0.118968, 0.592413, 0.071754
-0.114094, 0.592317, 0.0725536
-0.109219, 0.592212, 0.0734282
-0.104322, 0.591966, 0.0754685
-0.0994453, 0.591821, 0.0766802
-0.0945621, 0.59162, 0.0783529
-0.0896986, 0.591525, 0.0791368
-0.0848443, 0.591485, 0.0794697
-0.0800047, 0.59155, 0.0789328
-0.0751745, 0.591696, 0.0777154
-0.0703472, 0.591887, 0.0761261
-0.0655297, 0.592195, 0.0735683
-0.0607049, 0.592479, 0.0712037
-0.0558605, 0.592606, 0.0701437
-0.0510115, 0.592705, 0.0693274
-0.0461608, 0.592802, 0.0685163
-0.0413074, 0.592882, 0.0678482
-0.036452, 0.592953, 0.0672646
-0.0315904, 0.592929, 0.0674596
-0.0267296, 0.592911, 0.0676103
-0.0218711, 0.59295, 0.0672889
-0.017012, 0.592989, 0.0669622
-0.0121522, 0.593028, 0.0666399
-0.00729178, 0.593067, 0.0663133
-0.00243058, 0.593075, 0.0662484
0.00243049, 0.593051, 0.0664473
0.00729141, 0.593037, 0.0665617
0.0121521, 0.593023, 0.06668
0.0170126, 0.593009, 0.0667934
0.0218728, 0.592996, 0.0669017
0.0267329, 0.592983, 0.0670142
0.0315907, 0.592935, 0.06741
0.0364413, 0.592778, 0.0687141
0.0412892, 0.592622, 0.0700126
0.0461346, 0.592465, 0.0713162
0.0509775, 0.592309, 0.0726137
0.0558177, 0.592153, 0.0739164
0.0606555, 0.591997, 0.0752149
0.0654912, 0.591846, 0.0764666
0.0703271, 0.591718, 0.0775356
0.0751603, 0.591584, 0.0786486
0.0799954, 0.591481, 0.0795083
0.0848289, 0.591378, 0.0803628
0.0896608, 0.591276, 0.0812116
0.0944908, 0.591173, 0.0820661
0.0993211, 0.591082, 0.0828247
0.104158, 0.591038, 0.0831914
0.108995, 0.590995, 0.0835528
0.113831, 0.590952, 0.083909
0.118669, 0.590923, 0.0841508
0.123507, 0.590898, 0.0843582
0.128345, 0.590871, 0.0845795
0.133176, 0.590819, 0.0850139
0.138007, 0.590767, 0.0854435
0.142839, 0.590722, 0.0858178
0.147669, 0.590677, 0.0861974
0.152499, 0.590631, 0.0865808
0.157322, 0.590561, 0.0871582
0.162135, 0.59046, 0.0879979
0.166964, 0.590422, 0.0883155
0.171792, 0.590383, 0.0886393
0.176617, 0.590337, 0.0890265
0.181415, 0.590205, 0.0901222
0.186214, 0.590082, 0.0911446
0.19101, 0.589956, 0.0921907
0.195815, 0.589863, 0.0929632
0.200576, 0.589645, 0.0947824
0.205284, 0.589286, 0.0977669
0.20998, 0.58891, 0.100895
0.214753, 0.58876, 0.102142
0.219528, 0.588625, 0.103265
0.224301, 0.588489, 0.104393
0.229073, 0.588356, 0.105505
0.2339, 0.588367, 0.105412
0.238784, 0.588518, 0.104153
0.24367, 0.588668, 0.102909
0.248558, 0.588818, 0.101661
0.25345, 0.588969, 0.100407
0.25833, 0.589089, 0.0994053
0.263227, 0.589241, 0.0981407
0.268141, 0.589427, 0.0965934
0.27306, 0.589616, 0.0950212
0.277984, 0.58981, 0.0934048
0.282912, 0.590005, 0.091783
0.287847, 0.590208, 0.0900965
0.29279, 0.59042, 0.088336
0.297737, 0.590633, 0.0865607
0.302702, 0.590873, 0.0845613
0.307733, 0.591234, 0.0815573
0.312771, 0.591597, 0.078537
0.317852, 0.59203, 0.0749388
0.322942, 0.592464, 0.0713253
0.328174, 0.593145, 0.0656657
0.333503, 0.593976, 0.058754
0.338792, 0.594714, 0.0526099
0.344191, 0.595622, 0.0450559
0.34973, 0.596743, 0.0357342
0.355395, 0.598043, 0.0249128
0.425684, 0.600386, 0.0054245
0.429878, 0.599373, 0.0138502
0.434519, 0.598997, 0.0169773
0.439373, 0.598922, 0.0176063
0.444339, 0.598998, 0.0169735
0.449458, 0.599278, 0.0146451
0.454761, 0.599792, 0.0103641
0.668964, 0.602314, -0.0106139
0.67306, 0.601563, -0.00436401
0.676928, 0.600619, 0.0034833
0.68126, 0.600099, 0.00781059
0.685681, 0.599664, 0.0114331
0.690278, 0.599387, 0.0137324
0.694977, 0.599203, 0.0152678
0.699954, 0.599259, 0.0148015
0.705114, 0.599469, 0.013052
0.710003, 0.599449, 0.0132246
0.714911, 0.599444, 0.0132637
0.720667, 0.600146, 0.00742102
0.726127, 0.600593, 0.00370646
0.731296, 0.600795, 0.00202179
-0.371442, 0.60677, 0.00688887
-0.366627, 0.606943, 0.00546312
-0.362322, 0.607978, -0.003057
-0.252829, 0.60548, 0.0174985
-0.24764, 0.604798, 0.0231156
-0.242616, 0.604497, 0.0255952
-0.237578, 0.604151, 0.0284357
-0.232523, 0.603743, 0.0317984
-0.227541, 0.603513, 0.0336876
-0.22253, 0.603194, 0.0363154
-0.217413, 0.602566, 0.0414777
-0.212445, 0.602334, 0.0433917
-0.207467, 0.60206, 0.0456481
-0.202506, 0.601826, 0.0475717
-0.197568, 0.601646, 0.0490541
-0.192639, 0.601489, 0.050343
-0.187729, 0.601384, 0.0512099
-0.182817, 0.601266, 0.0521812
-0.177885, 0.601074, 0.0537624
-0.172968, 0.600923, 0.0550008
-0.168054, 0.600774, 0.0562248
-0.163142, 0.600623, 0.0574722
-0.158232, 0.600469, 0.0587354
-0.15333, 0.600338, 0.0598149
-0.148445, 0.60027, 0.0603728
-0.143567, 0.600224, 0.0607572
-0.13869, 0.600177, 0.0611367
-0.133816, 0.600147, 0.0613914
-0.128934, 0.600068, 0.0620379
-0.124042, 0.599941, 0.063086
-0.119144, 0.59977, 0.0644865
-0.114239, 0.599554, 0.0662684
-0.109359, 0.599448, 0.067143
-0.104489, 0.599394, 0.067585
-0.0996073, 0.599264, 0.0686574
-0.0947176, 0.599069, 0.07026
-0.0898277, 0.598851, 0.0720553
-0.0849356, 0.598593, 0.0741749
-0.0800697, 0.5985, 0.0749383
-0.0752188, 0.598516, 0.0748134
-0.0703842, 0.59867, 0.0735412
-0.065558, 0.598925, 0.0714407
-0.0607301, 0.599203, 0.0691557
-0.0558896, 0.599396, 0.0675707
-0.0510381, 0.599495, 0.0667543
-0.0461848, 0.599592, 0.0659528
-0.0413301, 0.599692, 0.0651355
-0.0364749, 0.599809, 0.0641651
-0.0316152, 0.59988, 0.0635862
-0.0267528, 0.599911, 0.0633292
-0.0218898, 0.599943, 0.0630679
-0.0170267, 0.599987, 0.0627012
-0.0121643, 0.600106, 0.0617242
-0.00730017, 0.600239, 0.0606332
-0.00243395, 0.600387, 0.0594163
0.00243445, 0.60051, 0.058404
0.00730297, 0.600469, 0.0587368
0.0121708, 0.600427, 0.0590835
0.017038, 0.600387, 0.0594149
0.0219045, 0.600345, 0.059762
0.0267704, 0.600304, 0.0600934
0.0316365, 0.600284, 0.0602608
0.0364975, 0.600182, 0.0610981
0.0413529, 0.600023, 0.0624061
0.0462058, 0.599865, 0.0637097
0.0510561, 0.599706, 0.0650172
0.0559038, 0.599548, 0.0663199
0.0607491, 0.59939, 0.0676174
0.0655916, 0.599232, 0.0689192
0.0704341, 0.599095, 0.0700469
0.0752772, 0.59898, 0.070992
0.0801184, 0.598865, 0.0719404
0.0849537, 0.598721, 0.0731225
0.0897866, 0.598577, 0.0743089
0.0946169, 0.598432, 0.0755005
0.0994451, 0.598288, 0.0766864
0.104281, 0.598203, 0.0773807
0.10912, 0.59814, 0.0779009
0.113962, 0.598096, 0.0782671
0.118802, 0.598052, 0.0786281
0.123642, 0.598009, 0.0789843
0.128485, 0.597982, 0.0792055
0.133322, 0.597929, 0.0796399
0.138158, 0.597876, 0.0800796
0.142992, 0.597822, 0.080524
0.147828, 0.597773, 0.0809221
0.152663, 0.597728, 0.0812964
0.157491, 0.59766, 0.0818539
0.162317, 0.597587, 0.0824552
0.167135, 0.597488, 0.0832701
0.17195, 0.597383, 0.0841289
0.176761, 0.597274, 0.0850325
0.181551, 0.597101, 0.0864558
0.18634, 0.596933, 0.0878344
0.191137, 0.596799, 0.0889397
0.195922, 0.596634, 0.0902982
0.200692, 0.596433, 0.0919485
0.205408, 0.596086, 0.0948038
0.210126, 0.595759, 0.0974946
0.214902, 0.595609, 0.098732
0.219681, 0.595472, 0.0998545
0.224473, 0.595378, 0.100636
0.229275, 0.59531, 0.101192
0.234134, 0.595391, 0.100524
0.239022, 0.595544, 0.0992661
0.243914, 0.595696, 0.0980129
0.248797, 0.595825, 0.0969524
0.253676, 0.595938, 0.0960264
0.258557, 0.59605, 0.0951042
0.263462, 0.596214, 0.0937514
0.268381, 0.596402, 0.0922046
0.273303, 0.596591, 0.0906525
0.278228, 0.596779, 0.0891056
0.283156, 0.596966, 0.087564
0.288128, 0.597241, 0.0853028
0.293151, 0.597608, 0.0822835
0.298179, 0.597974, 0.0792704
0.303207, 0.598329, 0.0763507
0.30824, 0.59868, 0.0734563
0.313365, 0.599199, 0.0691891
0.318555, 0.599823, 0.0640559
0.323841, 0.600607, 0.0576
0.32911, 0.601337, 0.0515966
0.334554, 0.60236, 0.0431805
0.340029, 0.603408, 0.0345531
0.425783, 0.607089, 0.00426197
0.430055, 0.606172, 0.011806
0.434613, 0.605674, 0.015902
0.439302, 0.60537, 0.0184102
0.444177, 0.605324, 0.018786
0.449247, 0.605542, 0.0169911
0.454433, 0.605911, 0.0139561
0.459773, 0.606474, 0.00932503
0.465302, 0.607273, 0.00275183
0.664249, 0.6091, -0.012291
0.668414, 0.608397, -0.00649786
0.672126, 0.607293, 0.00258493
0.676536, 0.606832, 0.00637579
0.680886, 0.606324, 0.0105553
0.685479, 0.606038, 0.012908
0.690204, 0.605873, 0.0142722
0.695073, 0.605835, 0.0145779
0.700264, 0.606076, 0.012598
0.705219, 0.606112, 0.0123038
0.71012, 0.6061, 0.0123973
0.71529, 0.606316, 0.0106187
0.721246, 0.607192, 0.00341034
0.726456, 0.607432, 0.00143671
0.731943, 0.607898, -0.00239944
-0.380738, 0.612456, 0.0140028
-0.375678, 0.612216, 0.0159531
-0.370898, 0.612432, 0.0141973
-0.365851, 0.612207, 0.0160298
-0.361043, 0.612381, 0.0146093
-0.356325, 0.612714, 0.0118966
-0.351737, 0.613284, 0.00725794
-0.252949, 0.612317, 0.0151324
-0.24771, 0.611508, 0.0217199
-0.24264, 0.611093, 0.0251007
-0.23762, 0.610789, 0.027575
-0.23256, 0.610367, 0.0310054
-0.227547, 0.610054, 0.0335588
-0.222514, 0.609674, 0.0366526
-0.217431, 0.609132, 0.0410609
-0.212415, 0.608759, 0.0440946
-0.207428, 0.608457, 0.0465589
-0.202494, 0.608295, 0.0478773
-0.197556, 0.608115, 0.0493398
-0.192651, 0.60803, 0.0500336
-0.187746, 0.607939, 0.0507712
-0.182833, 0.607819, 0.0517526
-0.177927, 0.607714, 0.052609
-0.173029, 0.607631, 0.0532827
-0.168132, 0.607549, 0.0539503
-0.163228, 0.607436, 0.0548706
-0.158315, 0.607281, 0.0561333
-0.153415, 0.607166, 0.0570636
-0.148518, 0.607055, 0.0579686
-0.143635, 0.607002, 0.0584025
