0.167744, 0.38573, 0.0653648
0.172604, 0.385725, 0.0654216
0.177464, 0.385721, 0.0654731
0.182324, 0.385717, 0.0655293
0.187175, 0.385693, 0.0658293
0.192018, 0.385655, 0.0663142
0.196859, 0.385616, 0.066813
0.201686, 0.385552, 0.0676351
0.206488, 0.385444, 0.0690203
0.211291, 0.385342, 0.0703197
0.216118, 0.385289, 0.0709972
0.220945, 0.385237, 0.0716691
0.225706, 0.385076, 0.073729
0.230292, 0.384629, 0.0794501
0.234761, 0.384007, 0.0874052
0.239379, 0.383651, 0.091958
0.243996, 0.383308, 0.0963464
0.248599, 0.382954, 0.100869
0.253275, 0.382727, 0.103783
0.257958, 0.382517, 0.106462
0.262639, 0.382312, 0.109085
0.267388, 0.382212, 0.110369
0.272127, 0.382102, 0.111777
0.276865, 0.381993, 0.11317
0.281606, 0.381893, 0.114448
0.286355, 0.381807, 0.115551
0.291102, 0.381721, 0.116649
0.295856, 0.381646, 0.117612
0.300618, 0.381584, 0.118401
0.305389, 0.381535, 0.119025
0.310167, 0.381498, 0.119503
0.314945, 0.381461, 0.119978
0.319824, 0.381544, 0.118914
0.324722, 0.381649, 0.117568
0.329599, 0.381725, 0.116593
0.334542, 0.381875, 0.114679
0.339525, 0.382066, 0.112233
0.344517, 0.382261, 0.109742
0.34956, 0.382507, 0.106598
0.354651, 0.382798, 0.102865
0.359761, 0.383102, 0.0989866
0.364827, 0.383351, 0.0958004
0.369847, 0.383545, 0.0933146
0.374851, 0.383719, 0.0910926
0.379892, 0.383925, 0.0884576
0.38517, 0.384362, 0.0828571
0.390862, 0.385198, 0.0721717
-0.227779, 0.395143, 0.0284972
-0.222457, 0.394393, 0.0379272
-0.217269, 0.393851, 0.0447435
-0.212012, 0.393157, 0.0534873
-0.206491, 0.391928, 0.0689483
-0.201155, 0.391, 0.0806217
-0.196011, 0.390408, 0.0880675
-0.190945, 0.389947, 0.0938649
-0.185958, 0.389626, 0.0979042
-0.180968, 0.389283, 0.102227
-0.176049, 0.389076, 0.104832
-0.171153, 0.388912, 0.106894
-0.166266, 0.388758, 0.108831
-0.161392, 0.388626, 0.110485
-0.156554, 0.388574, 0.111136
-0.151726, 0.388548, 0.111473
-0.146899, 0.38852, 0.111816
-0.14208, 0.388513, 0.111913
-0.137263, 0.388511, 0.111936
-0.132446, 0.388509, 0.111964
-0.127631, 0.388512, 0.111926
-0.12283, 0.388559, 0.111325
-0.118016, 0.38857, 0.111197
-0.113202, 0.38858, 0.111064
-0.108388, 0.38859, 0.110946
-0.103577, 0.388616, 0.110613
-0.098784, 0.388711, 0.109418
-0.0939921, 0.388822, 0.108018
-0.0891996, 0.388942, 0.106513
-0.0844009, 0.389048, 0.105182
-0.0795921, 0.389117, 0.104315
-0.0748104, 0.389336, 0.101558
-0.0700335, 0.389612, 0.0980873
-0.0652027, 0.389607, 0.0981512
-0.0603712, 0.389595, 0.0982985
-0.0555392, 0.389579, 0.0985012
-0.0507073, 0.389561, 0.0987287
-0.0458759, 0.389542, 0.0989604
-0.0410444, 0.389519, 0.0992465
-0.0362132, 0.389493, 0.0995779
-0.0313826, 0.389467, 0.0999036
-0.0265529, 0.389442, 0.100224
-0.0217236, 0.389416, 0.10055
-0.0168946, 0.389381, 0.100989
-0.0120663, 0.389339, 0.101513
-0.00723897, 0.389297, 0.102042
-0.00241274, 0.389263, 0.102476
0.00241253, 0.389229, 0.102905
0.00723707, 0.389195, 0.103328
0.0120608, 0.389162, 0.103746
0.0168838, 0.389132, 0.104119
0.0217077, 0.389131, 0.104138
0.0265316, 0.389129, 0.104162
0.0313552, 0.389127, 0.10419
0.0361789, 0.389125, 0.104213
0.0410026, 0.389123, 0.104241
0.0458262, 0.389121, 0.104263
0.0506493, 0.389115, 0.104331
0.0554723, 0.38911, 0.104403
0.0603008, 0.389141, 0.10401
0.065134, 0.389196, 0.103314
0.0699697, 0.389257, 0.102553
0.0748067, 0.389317, 0.101797
0.0796452, 0.389377, 0.101045
0.0844875, 0.389447, 0.100159
0.0893356, 0.389535, 0.0990477
0.0941903, 0.389642, 0.097702
0.0990658, 0.38982, 0.0954647
0.103946, 0.389998, 0.0932322
0.10883, 0.390175, 0.0909934
0.113731, 0.390395, 0.0882325
0.118643, 0.390633, 0.0852365
0.123562, 0.390877, 0.0821662
0.128444, 0.390987, 0.0807848
0.133322, 0.391077, 0.0796471
0.138198, 0.391158, 0.0786343
0.143077, 0.391239, 0.0776157
0.147958, 0.391319, 0.0766025
0.15284, 0.3914, 0.0755839
0.157724, 0.39148, 0.0745802
0.162611, 0.391562, 0.0735512
0.167455, 0.391536, 0.0738716
0.172296, 0.391508, 0.0742269
0.177144, 0.391496, 0.0743775
0.181992, 0.391484, 0.0745239
0.18684, 0.391473, 0.0746646
0.191686, 0.391461, 0.0748196
0.196523, 0.391429, 0.0752282
0.201359, 0.391396, 0.0756412
0.206185, 0.391347, 0.0762491
0.211006, 0.391291, 0.0769615
0.215799, 0.391186, 0.0782757
0.220549, 0.39101, 0.0804901
0.225249, 0.390754, 0.0837154
0.229963, 0.390534, 0.0864873
0.234561, 0.390129, 0.0915833
0.239258, 0.389902, 0.0944338
0.243855, 0.389525, 0.0991797
0.248528, 0.389279, 0.102268
0.2532, 0.389044, 0.10523
0.257882, 0.388831, 0.107909
0.262614, 0.388701, 0.109547
0.267365, 0.388603, 0.110781
0.272105, 0.388492, 0.112169
0.276842, 0.388381, 0.113572
0.281591, 0.388291, 0.1147
0.286341, 0.388204, 0.115793
0.291102, 0.388136, 0.116652
0.295866, 0.388073, 0.117446
0.300628, 0.38801, 0.118234
0.30539, 0.38795, 0.118997
0.310163, 0.387904, 0.119576
0.314941, 0.387866, 0.12005
0.319817, 0.387949, 0.119007
0.324702, 0.388039, 0.117869
0.329565, 0.388101, 0.117094
0.334481, 0.388222, 0.115567
0.339457, 0.388409, 0.11322
0.344443, 0.388602, 0.110789
0.349453, 0.388817, 0.108084
0.354544, 0.389114, 0.10435
0.359662, 0.389432, 0.100344
0.364766, 0.389727, 0.0966301
0.369802, 0.389943, 0.0939159
0.37483, 0.390146, 0.0913653
0.379844, 0.390328, 0.0890694
0.385052, 0.390702, 0.0843635
0.390408, 0.391216, 0.0779028
-0.232932, 0.402114, 0.0230584
-0.227505, 0.401192, 0.0344629
-0.222325, 0.400673, 0.040885
-0.217058, 0.399972, 0.0495625
-0.211751, 0.399164, 0.0595703
-0.206417, 0.398264, 0.0707088
-0.201136, 0.397425, 0.0810857
-0.195983, 0.396805, 0.0887599
-0.190899, 0.396296, 0.0950646
-0.185973, 0.396099, 0.0974998
-0.180989, 0.395763, 0.101653
-0.17605, 0.395509, 0.104806
-0.171149, 0.395331, 0.107007
-0.166262, 0.395174, 0.108944
-0.161408, 0.395088, 0.110009
-0.156561, 0.395016, 0.1109
-0.151734, 0.394989, 0.111237
-0.146906, 0.394962, 0.111579
-0.142084, 0.394945, 0.111786
-0.137264, 0.394936, 0.111899
-0.132446, 0.394931, 0.111957
-0.12763, 0.394931, 0.111959
-0.122815, 0.394934, 0.111916
-0.118012, 0.394978, 0.11138
-0.113207, 0.39502, 0.110857
-0.108393, 0.395031, 0.11072
-0.103578, 0.39504, 0.110606
-0.0987733, 0.395093, 0.109949
-0.0939781, 0.39519, 0.108748
-0.0891792, 0.39528, 0.107632
-0.0843795, 0.395378, 0.106421
-0.0795734, 0.395456, 0.105464
-0.0747703, 0.395559, 0.104182
-0.0700009, 0.395868, 0.100365
-0.0651836, 0.39593, 0.0995908
-0.0603489, 0.395888, 0.100107
-0.0555147, 0.395844, 0.100658
-0.0506813, 0.395797, 0.101244
-0.0458498, 0.395756, 0.101745
-0.0410207, 0.39573, 0.102072
-0.0361923, 0.395703, 0.102403
-0.0313646, 0.395677, 0.102719
-0.0265376, 0.395651, 0.103049
-0.0217111, 0.395624, 0.103374
-0.016885, 0.395592, 0.103774
-0.0120594, 0.39555, 0.104298
-0.00723485, 0.395507, 0.104827
-0.00241132, 0.395465, 0.10535
0.00241107, 0.395423, 0.105868
0.0072326, 0.395384, 0.106352
0.0120533, 0.39535, 0.10677
0.0168734, 0.39532, 0.107142
0.0216943, 0.395318, 0.107172
0.0265151, 0.395316, 0.107195
0.0313358, 0.395314, 0.107214
0.0361562, 0.395308, 0.107286
0.0409764, 0.395302, 0.107364
0.0457966, 0.395297, 0.107427
0.0506165, 0.395291, 0.107503
0.0554363, 0.395285, 0.107575
0.060262, 0.395318, 0.107163
0.0650917, 0.395372, 0.106497
0.0699229, 0.395426, 0.105826
0.0747563, 0.395485, 0.1051
0.0795915, 0.395546, 0.104348
0.0844283, 0.395607, 0.103591
0.0892665, 0.395668, 0.102839
0.0941095, 0.395743, 0.101912
0.0989677, 0.395871, 0.100323
0.103829, 0.396, 0.0987272
0.108706, 0.396172, 0.0965991
0.113589, 0.396352, 0.0943661
0.118482, 0.396552, 0.0918889
0.12339, 0.396782, 0.0890474
0.128267, 0.396902, 0.0875564
0.133139, 0.396996, 0.0863991
0.138013, 0.397089, 0.0852466
0.142889, 0.397183, 0.0840883
0.147767, 0.397276, 0.0829353
0.152645, 0.397362, 0.0818667
0.157523, 0.397444, 0.0808535
0.162396, 0.397506, 0.0800829
0.167239, 0.397495, 0.080224
0.172081, 0.397483, 0.0803699
0.176918, 0.397459, 0.0806704
0.18175, 0.397426, 0.0810742
0.186571, 0.397373, 0.0817323
0.191389, 0.397314, 0.0824652
0.196196, 0.397237, 0.0834117
0.200996, 0.397149, 0.0845022
0.205775, 0.397025, 0.0860453
0.210544, 0.396887, 0.0877428
0.21531, 0.396751, 0.0894341
0.220106, 0.396675, 0.090374
0.224899, 0.396596, 0.0913477
0.229683, 0.396506, 0.0924664
0.234439, 0.396372, 0.0941262
0.239114, 0.396108, 0.0973945
0.243785, 0.39585, 0.100587
0.248456, 0.3956, 0.103675
0.253125, 0.395357, 0.106687
0.257835, 0.395187, 0.108788
0.262589, 0.395088, 0.110017
0.267339, 0.394988, 0.111251
0.272083, 0.394882, 0.112569
0.276826, 0.394778, 0.113852
0.281581, 0.394695, 0.114881
0.286347, 0.39463, 0.115685
0.291112, 0.394565, 0.116485
0.295876, 0.394501, 0.117279
0.300639, 0.394438, 0.118057
0.305401, 0.394376, 0.11882
0.310162, 0.394314, 0.119588
0.314936, 0.394271, 0.120131
0.319809, 0.394351, 0.119137
0.324669, 0.394413, 0.118367
0.329531, 0.394475, 0.117602
0.33442, 0.394568, 0.116453
0.339395, 0.394757, 0.114107
0.344375, 0.394947, 0.111755
0.349363, 0.395142, 0.109349
0.354441, 0.395431, 0.105764
0.359562, 0.395759, 0.101708
0.36469, 0.396087, 0.0976467
0.369752, 0.396335, 0.0945754
0.37478, 0.396541, 0.0920253
0.379813, 0.396747, 0.0894809
0.384887, 0.396991, 0.0864639
0.390249, 0.397521, 0.079905
-0.232656, 0.408168, 0.0289526
-0.227377, 0.407486, 0.0372591
-0.222114, 0.406802, 0.0455828
-0.216774, 0.405945, 0.0560317
-0.211571, 0.405308, 0.0637784
-0.206351, 0.40461, 0.0722871
-0.201106, 0.403826, 0.0818272
-0.195966, 0.403222, 0.0891914
-0.190865, 0.402669, 0.0959234
-0.185936, 0.402459, 0.0984788
-0.18102, 0.402267, 0.100819
-0.176065, 0.401976, 0.10437
-0.171146, 0.401751, 0.107108
-0.166292, 0.401672, 0.108069
-0.161443, 0.401598, 0.108964
-0.156595, 0.401525, 0.109855
-0.151749, 0.401452, 0.11075
-0.146914, 0.401403, 0.111341
-0.142088, 0.401377, 0.111658
-0.137268, 0.401368, 0.111771
-0.132448, 0.401359, 0.111878
-0.12763, 0.401351, 0.11198
-0.122814, 0.401353, 0.111947
-0.117999, 0.401357, 0.111899
-0.113193, 0.401394, 0.111447
-0.108392, 0.401452, 0.110741
-0.103582, 0.401481, 0.110388
-0.0987684, 0.401498, 0.11019
-0.0939679, 0.401573, 0.109278
-0.089171, 0.401671, 0.108082
-0.0843675, 0.40175, 0.107121
-0.0795609, 0.401823, 0.106233
-0.0747581, 0.401925, 0.104982
-0.069967, 0.402109, 0.102739
-0.0651586, 0.402214, 0.101467
-0.060337, 0.402246, 0.101077
-0.0555041, 0.402203, 0.101597
-0.0506711, 0.402152, 0.102224
-0.0458392, 0.402098, 0.102874
-0.0410093, 0.402052, 0.103439
-0.0361804, 0.402005, 0.10401
-0.0313527, 0.401958, 0.104585
-0.0265262, 0.401911, 0.105155
-0.0217007, 0.401865, 0.105719
-0.0168764, 0.401818, 0.106288
-0.0120531, 0.401772, 0.106852
-0.00723102, 0.401725, 0.10742
-0.00241002, 0.401679, 0.107984
0.00240974, 0.401632, 0.108552
0.00722852, 0.401586, 0.109115
0.0120462, 0.401539, 0.109682
0.016863, 0.4015, 0.110165
0.0216807, 0.401493, 0.110243
0.0264983, 0.401488, 0.110307
0.0313155, 0.401482, 0.110385
0.0361328, 0.401476, 0.110458
0.0409499, 0.40147, 0.110526
0.0457669, 0.401464, 0.110598
0.0505838, 0.401459, 0.110665
0.0554005, 0.401453, 0.110736
0.0602231, 0.401487, 0.110325
0.0650498, 0.401542, 0.109649
0.0698779, 0.401597, 0.108977
0.0747073, 0.401652, 0.10831
0.079538, 0.401707, 0.107638
0.0843714, 0.401768, 0.106892
0.0892064, 0.40183, 0.106139
0.0940455, 0.401904, 0.105243
0.0989004, 0.402034, 0.103653
0.103758, 0.402165, 0.102068
0.10862, 0.402296, 0.100468
0.113484, 0.402426, 0.0988827
0.118352, 0.402557, 0.0972824
0.123228, 0.402704, 0.0954971
0.128088, 0.402793, 0.0944147
0.13293, 0.402819, 0.0940943
0.137773, 0.402846, 0.0937681
0.142617, 0.402872, 0.0934472
0.147461, 0.402899, 0.0931206
0.152306, 0.402926, 0.0927992
0.157151, 0.402952, 0.0924721
0.162049, 0.403107, 0.0905862
0.16684, 0.402995, 0.0919523
0.171652, 0.40294, 0.0926261
0.176481, 0.402923, 0.0928264
0.181308, 0.402907, 0.0930309
0.186136, 0.402891, 0.0932202
0.190969, 0.402889, 0.0932446
0.195803, 0.402887, 0.0932746
0.200637, 0.402885, 0.0932989
0.205472, 0.402885, 0.0932879
0.210309, 0.40289, 0.0932322
0.215146, 0.402894, 0.0931811
0.219961, 0.402859, 0.0936127
0.224775, 0.402823, 0.094049
0.229592, 0.402793, 0.0944104
0.234303, 0.402583, 0.0969763
0.239014, 0.402381, 0.0994372
0.243698, 0.402141, 0.102351
0.248376, 0.401902, 0.105259
0.253055, 0.401674, 0.108041
0.25781, 0.401574, 0.109266
0.262564, 0.401473, 0.110486
0.267314, 0.401372, 0.11172
0.272061, 0.40127, 0.112968
0.276823, 0.401192, 0.113912
0.281591, 0.401126, 0.114712
0.286357, 0.40106, 0.115516
0.291122, 0.400995, 0.116315
0.295885, 0.400929, 0.117119
0.300649, 0.400866, 0.117887
0.305412, 0.400803, 0.11865
0.310173, 0.40074, 0.119418
0.314932, 0.400677, 0.12018
0.319776, 0.400722, 0.119634
0.324641, 0.400791, 0.118794
0.329508, 0.400861, 0.117939
0.334383, 0.400938, 0.117
0.339355, 0.401129, 0.114684
0.344333, 0.40132, 0.112351
0.349315, 0.401511, 0.110025
0.354366, 0.401775, 0.106809
0.359489, 0.402112, 0.102703
0.36462, 0.402451, 0.0985827
0.369716, 0.40274, 0.0950537
0.374769, 0.402978, 0.0921659
0.379812, 0.403198, 0.0894833
0.384861, 0.403418, 0.0868049
0.390208, 0.403942, 0.0804253
0.396523, 0.405442, 0.062149
-0.232599, 0.414598, 0.0301547
-0.227187, 0.41366, 0.0414085
-0.221834, 0.41279, 0.0518312
-0.216563, 0.412037, 0.0608559
-0.211396, 0.411452, 0.0678749
-0.206258, 0.410899, 0.0745015
-0.201056, 0.410186, 0.0830445
-0.19592, 0.409577, 0.0903482
-0.190864, 0.409108, 0.0959649
-0.185909, 0.408839, 0.0991964
-0.181011, 0.408683, 0.101068
-0.176081, 0.408445, 0.103921
-0.171192, 0.40829, 0.105774
-0.166322, 0.408172, 0.107193
-0.161472, 0.408098, 0.108078
-0.156625, 0.408029, 0.108908
-0.15178, 0.40796, 0.109734
-0.146936, 0.407888, 0.110594
-0.142094, 0.407817, 0.111449
-0.137272, 0.407801, 0.111631
-0.132453, 0.407795, 0.111708
-0.127639, 0.407801, 0.11163
-0.122823, 0.407806, 0.111578
-0.118008, 0.40781, 0.11153
-0.113193, 0.407815, 0.111467
-0.108383, 0.407841, 0.111159
-0.103574, 0.407874, 0.110756
-0.0987702, 0.407929, 0.1101
-0.0939618, 0.407971, 0.109597
-0.0891612, 0.408053, 0.108621
-0.0843602, 0.408143, 0.107539
-0.0795516, 0.408204, 0.106802
-0.0747458, 0.408289, 0.10579
-0.0699458, 0.408419, 0.104224
-0.0651349, 0.4085, 0.103251
-0.060314, 0.408526, 0.102941
-0.0554931, 0.408558, 0.102565
-0.0506616, 0.408509, 0.103151
-0.0458306, 0.408455, 0.103791
-0.0410009, 0.408402, 0.104436
-0.0361725, 0.408348, 0.105076
-0.0313459, 0.408301, 0.105641
-0.0265205, 0.408254, 0.106211
-0.021696, 0.408207, 0.106775
-0.0168727, 0.408159, 0.107345
-0.0120505, 0.408111, 0.107918
-0.00722946, 0.408065, 0.108476
-0.0024095, 0.408017, 0.10905
0.00240922, 0.40797, 0.109608
0.00722694, 0.407922, 0.110181
0.0120433, 0.407868, 0.110828
0.0168586, 0.407817, 0.11144
0.0216737, 0.407786, 0.111818
0.0264884, 0.40776, 0.11213
0.0313033, 0.407746, 0.112298
0.0361178, 0.407731, 0.11248
0.0409322, 0.407717, 0.112648
0.0457461, 0.407702, 0.11282
0.0505597, 0.407688, 0.112996
0.055373, 0.407673, 0.113168
0.0601909, 0.407693, 0.112935
0.0650119, 0.407729, 0.112498
0.0698339, 0.407766, 0.112056
0.0746592, 0.407816, 0.111459
0.0794867, 0.407871, 0.110797
0.0843157, 0.407927, 0.11012
0.0891462, 0.407984, 0.109438
0.0939817, 0.408058, 0.108561
0.0988332, 0.408189, 0.106982
0.103688, 0.408322, 0.105386
0.108546, 0.408455, 0.103797
0.113408, 0.40859, 0.102181
0.118273, 0.408724, 0.100571
0.123141, 0.408859, 0.0989561
0.127989, 0.40892, 0.0982218
0.132825, 0.408939, 0.0980005
0.137661, 0.408957, 0.0977745
0.142498, 0.408976, 0.0975528
0.147335, 0.408995, 0.0973258
0.152172, 0.409013, 0.0971041
0.15701, 0.409032, 0.0968766
0.161862, 0.409085, 0.0962453
0.166701, 0.409102, 0.0960374
0.171538, 0.409114, 0.0958943
0.176376, 0.409127, 0.0957451
0.181213, 0.409139, 0.0956011
0.186051, 0.409151, 0.0954523
0.190893, 0.409171, 0.0952177
0.195748, 0.409219, 0.0946403
0.200602, 0.409261, 0.0941367
0.205438, 0.409265, 0.0940866
0.210261, 0.409244, 0.0943394
0.21506, 0.409177, 0.0951443
0.219873, 0.409142, 0.0955653
0.224724, 0.409175, 0.0951653
0.229463, 0.409008, 0.0971689
0.234207, 0.408855, 0.0989976
0.238893, 0.408612, 0.101917
0.243574, 0.408369, 0.104829
0.24825, 0.408125, 0.107747
0.253003, 0.408017, 0.109046
0.25776, 0.407919, 0.110221
0.262514, 0.40782, 0.11141
0.267255, 0.407705, 0.112793
0.272019, 0.407628, 0.113713
0.276796, 0.407571, 0.114388
0.281564, 0.407506, 0.115179
0.28633, 0.407439, 0.115973
0.291095, 0.407373, 0.116771
0.295874, 0.407328, 0.117306
0.300652, 0.407283, 0.117846
0.305413, 0.407218, 0.118629
0.310174, 0.407153, 0.119406
0.314933, 0.407088, 0.120178
0.319797, 0.40716, 0.119323
0.324662, 0.407231, 0.118474
0.329528, 0.407299, 0.11765
0.334401, 0.407375, 0.116739
0.339374, 0.407569, 0.114413
0.344351, 0.407763, 0.112092
0.349326, 0.407949, 0.109865
0.354358, 0.408195, 0.106917
0.359481, 0.408537, 0.102812
0.364612, 0.408881, 0.0986919
0.369717, 0.409185, 0.0950441
0.374788, 0.409446, 0.0919185
0.379837, 0.409676, 0.0891657
0.384886, 0.4099, 0.0864773
0.390166, 0.410361, 0.0809531
0.396106, 0.411496, 0.067338
-0.23239, 0.420748, 0.0346298
-0.226926, 0.41969, 0.0471168
-0.221577, 0.418805, 0.0575595
-0.216395, 0.418201, 0.064692
-0.21124, 0.417624, 0.0715017
-0.206126, 0.417102, 0.0776587
-0.201007, 0.416544, 0.08425
-0.195855, 0.415889, 0.0919714
-0.190859, 0.415542, 0.0960736
-0.1859, 0.415258, 0.0994244
-0.180987, 0.415063, 0.101725
-0.176109, 0.414942, 0.103153
-0.171246, 0.414848, 0.104259
-0.166373, 0.414728, 0.105677
-0.161504, 0.414607, 0.1071
-0.156647, 0.414513, 0.10822
-0.151801, 0.414442, 0.109054
-0.146958, 0.414372, 0.109874
-0.142118, 0.41431, 0.11061
-0.13729, 0.414279, 0.110981
-0.132474, 0.414283, 0.110929
-0.127659, 0.414289, 0.110852
-0.122844, 0.414297, 0.110769
-0.118026, 0.414296, 0.110771
-0.11321, 0.4143, 0.110727
-0.108395, 0.414308, 0.110629
-0.103586, 0.414342, 0.110227
-0.0987755, 0.414375, 0.109839
-0.0939626, 0.414399, 0.109555
-0.0891543, 0.414447, 0.108998
-0.0843529, 0.414534, 0.107966
-0.0795454, 0.4146, 0.107188
-0.0747356, 0.414662, 0.106455
-0.0699343, 0.414783, 0.10503
-0.0651271, 0.414884, 0.103838
-0.0603036, 0.414888, 0.103786
-0.0554791, 0.414887, 0.1038
-0.0506529, 0.414871, 0.103987
-0.0458219, 0.414809, 0.104726
-0.0409932, 0.414755, 0.105362
-0.0361657, 0.4147, 0.106001
-0.0313395, 0.414646, 0.106646
-0.0265147, 0.414593, 0.107265
-0.0216913, 0.414545, 0.10784
-0.0168691, 0.414496, 0.108409
-0.0120479, 0.414449, 0.108973
-0.00722789, 0.414401, 0.109541
-0.00240897, 0.414352, 0.110115
0.00240866, 0.414297, 0.110762
0.00722513, 0.414243, 0.111405
0.0120403, 0.414188, 0.112052
0.0168544, 0.414137, 0.112654
0.0216683, 0.414105, 0.113031
0.0264815, 0.414073, 0.113403
0.0312938, 0.414042, 0.11377
0.0361062, 0.414018, 0.114052
0.0409189, 0.414003, 0.11423
0.0457313, 0.413989, 0.114402
0.0505433, 0.413974, 0.114578
0.055355, 0.413959, 0.11475
0.0601715, 0.41398, 0.114507
0.064991, 0.414017, 0.11407
0.0698114, 0.414054, 0.113628
0.0746327, 0.414091, 0.113191
0.079455, 0.414129, 0.112748
0.084278, 0.414166, 0.11231
0.089102, 0.414203, 0.111867
0.0939272, 0.414243, 0.111398
0.0987695, 0.41435, 0.110137
0.103619, 0.414477, 0.108633
0.108475, 0.414614, 0.107023
0.113333, 0.414751, 0.105408
0.118195, 0.414887, 0.103797
0.12306, 0.415024, 0.102182
0.127906, 0.41509, 0.101409
0.132738, 0.415108, 0.101188
0.137571, 0.415128, 0.100961
0.142405, 0.415146, 0.100739
0.147253, 0.415204, 0.100064
0.152104, 0.415268, 0.0993037
0.156957, 0.415332, 0.0985489
0.16181, 0.415393, 0.0978279
0.166645, 0.415406, 0.0976801
0.171481, 0.415418, 0.0975366
0.176316, 0.41543, 0.0973878
0.181165, 0.415472, 0.0968952
0.186018, 0.41552, 0.0963278
0.190872, 0.41557, 0.0957451
0.195727, 0.415619, 0.0951672
0.200569, 0.415636, 0.0949626
0.205358, 0.415547, 0.0960069
0.210161, 0.415491, 0.0966778
0.214978, 0.415462, 0.0970149
0.219826, 0.415495, 0.0966201
0.224627, 0.41544, 0.0972748
0.229398, 0.415332, 0.0985518
0.234088, 0.415084, 0.101475
0.238772, 0.414836, 0.104403
0.24345, 0.414588, 0.107325
0.248193, 0.414458, 0.108859
0.252951, 0.414358, 0.110039
0.257691, 0.414233, 0.111522
0.262428, 0.414106, 0.11302
0.267179, 0.414007, 0.114183
0.271965, 0.413964, 0.114695
0.276749, 0.41392, 0.115211
0.281519, 0.413857, 0.115952
0.286285, 0.41379, 0.116745
0.29105, 0.413723, 0.117534
0.295845, 0.413702, 0.11779
0.300647, 0.41369, 0.117921
0.305412, 0.413629, 0.118645
0.310172, 0.413563, 0.119422
0.314953, 0.413526, 0.119865
0.319817, 0.413598, 0.119011
0.324682, 0.413669, 0.118172
0.329542, 0.413732, 0.117436
0.334419, 0.413813, 0.116477
0.339392, 0.41401, 0.114151
0.344367, 0.414204, 0.11186
0.349331, 0.414379, 0.109792
0.35435, 0.414614, 0.107024
0.359473, 0.414962, 0.102919
0.364604, 0.415311, 0.0987992
0.369717, 0.415629, 0.0950422
0.374797, 0.415903, 0.0918078
0.379859, 0.416152, 0.0888762
0.384911, 0.416382, 0.0861583
0.390124, 0.416778, 0.0814791
0.395794, 0.417648, 0.0712228
-0.23785, 0.428293, 0.0227523
-0.232097, 0.426733, 0.040885
-0.226659, 0.425697, 0.0529323
-0.221416, 0.424988, 0.0611644
-0.216228, 0.424358, 0.0684853
-0.211099, 0.423815, 0.0747967
-0.205986, 0.42328, 0.0810132
-0.200896, 0.42277, 0.086947
-0.195803, 0.422224, 0.0932837
-0.190846, 0.421954, 0.0964198
-0.185895, 0.421685, 0.0995512
-0.180965, 0.421448, 0.102309
-0.176112, 0.421382, 0.103071
-0.171261, 0.421317, 0.103827
-0.1664, 0.421224, 0.104907
-0.161539, 0.421126, 0.106051
-0.15668, 0.421028, 0.10719
-0.151823, 0.420927, 0.108364
-0.146984, 0.420871, 0.109004
-0.142148, 0.420821, 0.10959
-0.137314, 0.420775, 0.110121
-0.132496, 0.420776, 0.110108
-0.12768, 0.420781, 0.110062
-0.122863, 0.420787, 0.109989
-0.118046, 0.42079, 0.109951
-0.113228, 0.420789, 0.109967
-0.10841, 0.420792, 0.109929
-0.103597, 0.420811, 0.109705
-0.0987862, 0.420845, 0.109308
-0.0939715, 0.420864, 0.109093
-0.0891569, 0.420884, 0.108855
-0.0843454, 0.420923, 0.108401
-0.0795393, 0.420995, 0.107564
-0.07473, 0.421059, 0.106821
-0.0699228, 0.421144, 0.105834
-0.0651174, 0.421254, 0.104562
-0.0602971, 0.421275, 0.104311
-0.0554733, 0.421275, 0.104315
-0.050649, 0.421271, 0.104363
-0.0458183, 0.421206, 0.105113
-0.040989, 0.421142, 0.105867
-0.0361611, 0.421076, 0.106626
-0.0313348, 0.421011, 0.10738
-0.0265101, 0.420947, 0.10813
-0.0216868, 0.420885, 0.108853
-0.0168654, 0.420832, 0.109462
-0.0120453, 0.420783, 0.110036
-0.0072262, 0.420727, 0.110684
-0.00240838, 0.420672, 0.111326
0.00240806, 0.420616, 0.111974
0.00722334, 0.420561, 0.112617
0.0120373, 0.420505, 0.113264
0.0168502, 0.420452, 0.113875
0.0216629, 0.420421, 0.114243
0.0264749, 0.420389, 0.114615
0.031286, 0.420356, 0.114992
0.0360965, 0.420324, 0.115364
0.0409063, 0.420293, 0.11573
0.0457165, 0.420271, 0.115982
0.050527, 0.420256, 0.116158
0.0553371, 0.420241, 0.11633
0.0601521, 0.420262, 0.116087
0.0649701, 0.4203, 0.11564
0.0697889, 0.420338, 0.115209
0.0746088, 0.420376, 0.114761
0.0794286, 0.42041, 0.114368
0.084249, 0.420442, 0.11399
0.0890699, 0.420474, 0.113626
0.0938932, 0.420513, 0.113168
0.0987333, 0.42062, 0.111928
0.103576, 0.420728, 0.110672
0.108422, 0.420838, 0.10939
0.11327, 0.420948, 0.108114
0.118121, 0.421058, 0.106833
0.122979, 0.421181, 0.105407
0.127822, 0.421251, 0.104593
0.132665, 0.421313, 0.103874
0.137511, 0.421378, 0.103119
0.142358, 0.421442, 0.10237
0.147206, 0.421507, 0.101615
0.152056, 0.421573, 0.100855
0.156907, 0.421638, 0.1001
0.161756, 0.421692, 0.0994692
0.166595, 0.421719, 0.0991611
0.171444, 0.421768, 0.0985894
0.176293, 0.421816, 0.0980325
0.181142, 0.42186, 0.0975199
0.185992, 0.421903, 0.097012
0.190842, 0.421947, 0.0965095
0.19568, 0.42196, 0.0963497
0.200471, 0.421874, 0.0973597
0.20527, 0.42181, 0.0980949
0.21008, 0.42177, 0.098567
0.214927, 0.421804, 0.0981669
0.219765, 0.421819, 0.097991
0.22455, 0.421735, 0.0989738
0.229288, 0.421567, 0.100917
0.233969, 0.421305, 0.10397
0.23865, 0.421053, 0.106897
0.243379, 0.420892, 0.108765
0.248122, 0.420764, 0.110258
0.252863, 0.420636, 0.111746
0.257601, 0.420507, 0.113239
0.26234, 0.420385, 0.114656
0.267126, 0.420342, 0.115163
0.27191, 0.420298, 0.115674
0.276693, 0.420253, 0.116191
0.281475, 0.420207, 0.116722
0.28624, 0.42014, 0.117506
0.291014, 0.420086, 0.118135
0.295816, 0.420074, 0.118272
0.300618, 0.420063, 0.118403
0.305411, 0.42004, 0.118669
0.310171, 0.419973, 0.119446
0.314974, 0.419965, 0.119542
0.319838, 0.420037, 0.118697
0.324697, 0.420101, 0.117958
0.329556, 0.420164, 0.117232
0.334437, 0.420251, 0.116214
0.339409, 0.42045, 0.113897
0.344373, 0.420633, 0.111775
0.349337, 0.420811, 0.109708
0.354343, 0.421033, 0.107128
0.359465, 0.421386, 0.103024
0.364596, 0.42174, 0.0989151
0.369718, 0.422075, 0.0950193
0.374806, 0.422362, 0.0916858
0.379868, 0.422613, 0.0887647
0.384936, 0.422865, 0.0858383
0.390082, 0.423195, 0.0820036
0.395498, 0.423806, 0.0749068
-0.23748, 0.434157, 0.0304885
-0.231916, 0.432909, 0.0447683
-0.226465, 0.431825, 0.0571728
-0.221279, 0.43121, 0.064219
-0.21612, 0.430621, 0.0709629
-0.210952, 0.429986, 0.0782285
-0.205862, 0.429485, 0.0839672
-0.20077, 0.428954, 0.0900393
-0.195769, 0.428597, 0.0941262
-0.190811, 0.428319, 0.097312
-0.185861, 0.428044, 0.100453
-0.180962, 0.427874, 0.102404
-0.176109, 0.427807, 0.103166
-0.171264, 0.427757, 0.103743
-0.166413, 0.42769, 0.104504
-0.161555, 0.427598, 0.105558
-0.156698, 0.427503, 0.106647
-0.151855, 0.427445, 0.107313
-0.147014, 0.427386, 0.107984
-0.142177, 0.427335, 0.10857
-0.137341, 0.427284, 0.10916
-0.13252, 0.427277, 0.109237
-0.127701, 0.427278, 0.109229
-0.122883, 0.42728, 0.109196
-0.118066, 0.427286, 0.109128
-0.113247, 0.427285, 0.109145
-0.108427, 0.427284, 0.109157
-0.103609, 0.427286, 0.109132
-0.098797, 0.427317, 0.108775
-0.0939804, 0.42733, 0.10863
-0.0891633, 0.427341, 0.108501
-0.0843501, 0.427374, 0.108128
-0.0795351, 0.427401, 0.107818
-0.0747248, 0.427458, 0.107165
-0.0699169, 0.427538, 0.106248
-0.0651084, 0.427626, 0.105246
-0.0602908, 0.427662, 0.104825
-0.0554676, 0.427663, 0.104819
-0.0506443, 0.427663, 0.104816
-0.0458148, 0.427605, 0.105486
-0.0409858, 0.427539, 0.106241
-0.0361584, 0.427473, 0.10699
-0.0313324, 0.427407, 0.107744
-0.026508, 0.427341, 0.108503
-0.021685, 0.427275, 0.109257
-0.0168635, 0.42721, 0.110005
-0.0120435, 0.427143, 0.110768
-0.00722501, 0.42708, 0.111485
-0.00240795, 0.427018, 0.112198
0.0024076, 0.426956, 0.112905
0.00722188, 0.426895, 0.113607
0.0120348, 0.426833, 0.114314
0.0168464, 0.426775, 0.114976
0.0216577, 0.426736, 0.115423
0.0264683, 0.4267, 0.115835
0.0312783, 0.426668, 0.116202
0.0360876, 0.426636, 0.116573
0.0408961, 0.426603, 0.11695
0.045704, 0.426571, 0.117321
0.0505112, 0.426539, 0.117687
0.0553193, 0.426519, 0.117908
0.0601328, 0.426541, 0.117656
0.064949, 0.426579, 0.117229
0.0697653, 0.426611, 0.116857
0.0745824, 0.426643, 0.116488
0.0794002, 0.426676, 0.116116
0.0842187, 0.426708, 0.115747
0.089038, 0.426741, 0.115374
0.0938592, 0.426779, 0.114935
0.0986976, 0.426887, 0.113695
0.103539, 0.426996, 0.112449
0.108382, 0.427106, 0.111198
0.113228, 0.427216, 0.109932
0.118078, 0.427328, 0.108651
0.122929, 0.42744, 0.107374
0.127779, 0.427537, 0.106261
0.132626, 0.427617, 0.105343
0.137469, 0.427683, 0.104589
0.142315, 0.427748, 0.103839
0.147162, 0.427814, 0.103085
0.15201, 0.42788, 0.102334
0.15686, 0.427946, 0.10158
0.161711, 0.428011, 0.100839
0.16656, 0.428068, 0.100183
0.171406, 0.428112, 0.0996809
0.176252, 0.428156, 0.0991735
0.1811, 0.428201, 0.0986609
0.185948, 0.428245, 0.0981536
0.190798, 0.428289, 0.0976501
0.195595, 0.428215, 0.0984964
0.200386, 0.428135, 0.0994163
0.205188, 0.428079, 0.100052
0.210028, 0.428103, 0.0997772
0.214856, 0.428104, 0.0997753
0.21967, 0.428075, 0.100096
0.224449, 0.427983, 0.101159
0.229197, 0.427835, 0.102853
0.233876, 0.427568, 0.105905
0.238568, 0.427334, 0.108583
0.243321, 0.427218, 0.109913
0.248059, 0.427079, 0.111506
0.252792, 0.426938, 0.113113
0.257524, 0.426799, 0.114705
0.262293, 0.426727, 0.115525
0.267073, 0.426675, 0.116132
0.271856, 0.426629, 0.116653
0.276638, 0.426584, 0.117169
0.28142, 0.426539, 0.11768
0.286195, 0.426487, 0.118275
0.290985, 0.426458, 0.118616
0.295786, 0.426446, 0.118752
0.300588, 0.426434, 0.118884
0.305389, 0.426423, 0.119009
0.310169, 0.426383, 0.119469
0.314995, 0.426405, 0.119216
0.319852, 0.426469, 0.118482
0.32471, 0.426533, 0.117752
0.32957, 0.426596, 0.117026
0.334454, 0.42669, 0.115958
0.339419, 0.426882, 0.113761
0.344379, 0.427062, 0.111699
0.349343, 0.427242, 0.109632
0.354335, 0.427451, 0.107242
0.359457, 0.42781, 0.103138
0.364588, 0.42817, 0.0990191
0.36972, 0.42852, 0.0950046
0.374815, 0.42882, 0.0915723
0.379877, 0.429075, 0.0886507
0.384946, 0.429332, 0.0857153
0.390041, 0.42961, 0.0825262
0.395469, 0.430244, 0.0752711
-0.242987, 0.441795, 0.0179791
-0.237321, 0.440389, 0.033833
-0.231727, 0.439063, 0.0487881
-0.226352, 0.438101, 0.0596294
-0.221162, 0.437464, 0.0668144
-0.216011, 0.436877, 0.0734372
-0.210816, 0.436171, 0.0813899
-0.205738, 0.435681, 0.0869193
-0.200674, 0.435197, 0.0923734
-0.195729, 0.434954, 0.0951161
-0.190769, 0.434665, 0.0983815
-0.185838, 0.434426, 0.101074
-0.180961, 0.434307, 0.102418
-0.176097, 0.434212, 0.103488
-0.171248, 0.43415, 0.104184
-0.166405, 0.434099, 0.104756
-0.161568, 0.434064, 0.105154
-0.156733, 0.434029, 0.105546
-0.15189, 0.43397, 0.106212
-0.147047, 0.43391, 0.106892
-0.142207, 0.433852, 0.107547
-0.13737, 0.4338, 0.108137
-0.132543, 0.433779, 0.108374
-0.127724, 0.433779, 0.108366
-0.122905, 0.43378, 0.108353
-0.118085, 0.433782, 0.108335
-0.113266, 0.433783, 0.108322
-0.108446, 0.433782, 0.108333
-0.103625, 0.433781, 0.108348
-0.0988066, 0.433785, 0.1083
-0.0939891, 0.433796, 0.108176
-0.0891718, 0.433809, 0.108036
-0.084355, 0.433826, 0.107842
-0.0795404, 0.433857, 0.107493
-0.0747209, 0.433863, 0.107418
-0.0699156, 0.433959, 0.106341
-0.0651124, 0.434083, 0.10494
-0.0602933, 0.434111, 0.10462
-0.0554669, 0.434088, 0.104883
-0.0506413, 0.434068, 0.105109
-0.0458114, 0.434002, 0.105849
-0.0409828, 0.433936, 0.106604
-0.0361557, 0.433868, 0.107362
-0.03133, 0.433801, 0.108117
-0.0265061, 0.433735, 0.108865
-0.0216834, 0.433668, 0.109619
-0.0168623, 0.433601, 0.110376
-0.0120426, 0.433534, 0.11113
-0.00722442, 0.433467, 0.111887
-0.00240773, 0.4334, 0.112639
0.00240738, 0.433337, 0.113357
0.00722121, 0.433274, 0.114059
0.0120336, 0.433212, 0.114766
0.0168449, 0.433153, 0.115427
0.0216557, 0.433113, 0.115874
0.0264657, 0.433075, 0.116306
0.0312747, 0.433036, 0.116752
0.036083, 0.432996, 0.117194
0.0408904, 0.432958, 0.11763
0.045697, 0.432919, 0.118071
0.0505027, 0.43288, 0.118506
0.055307, 0.432837, 0.118987
0.060116, 0.432835, 0.119013
0.064928, 0.432854, 0.118804
0.0697405, 0.432872, 0.118592
0.0745557, 0.432904, 0.118234
0.0793718, 0.432937, 0.117861
0.0841886, 0.43297, 0.117493
0.0890062, 0.433003, 0.117119
0.0938253, 0.43304, 0.116701
0.0986619, 0.43315, 0.115461
0.103501, 0.43326, 0.114224
0.108343, 0.433371, 0.112973
0.113187, 0.43348, 0.111738
0.118034, 0.433593, 0.110466
0.122883, 0.433706, 0.10919
0.127732, 0.433807, 0.108058
0.132578, 0.433892, 0.1071
0.137426, 0.433976, 0.106146
0.142273, 0.434053, 0.105277
0.147119, 0.43412, 0.104522
0.151965, 0.434187, 0.103773
0.156814, 0.434254, 0.103017
0.161663, 0.434319, 0.102277
0.166513, 0.434382, 0.10157
0.171364, 0.434445, 0.10086
0.176211, 0.434493, 0.100313
0.181058, 0.434538, 0.0998096
0.185905, 0.434583, 0.0993018
0.19072, 0.434553, 0.0996456
0.19551, 0.434466, 0.10062
0.200305, 0.434397, 0.101401
0.205132, 0.434397, 0.101399
0.209953, 0.434384, 0.101542
0.214775, 0.434377, 0.10163
0.219572, 0.434319, 0.10228
0.224343, 0.434212, 0.103492
0.229096, 0.434077, 0.105006
0.233784, 0.433826, 0.107839
0.238514, 0.433662, 0.109691
0.243279, 0.433566, 0.110771
0.248016, 0.433426, 0.112345
0.252749, 0.433285, 0.113941
0.257498, 0.433175, 0.115185
0.262278, 0.43312, 0.115797
0.267058, 0.433067, 0.116403
0.271836, 0.433012, 0.117013
0.276613, 0.432959, 0.117619
0.281389, 0.432906, 0.118208
0.286173, 0.432867, 0.118654
0.290972, 0.432851, 0.118835
0.29577, 0.432834, 0.119022
0.300568, 0.432817, 0.119213
0.305366, 0.432802, 0.119389
0.310162, 0.432785, 0.119579
0.315009, 0.432837, 0.118989
0.319865, 0.432901, 0.118274
0.324724, 0.432965, 0.117544
0.329584, 0.43303, 0.116819
0.334469, 0.433125, 0.11574
0.339426, 0.43331, 0.113653
0.344392, 0.4335, 0.111512
0.349361, 0.43369, 0.109376
0.354354, 0.433903, 0.106976
0.359486, 0.434278, 0.102743
0.364626, 0.434654, 0.098505
0.369766, 0.435018, 0.0943923
0.374866, 0.435328, 0.0909004
0.379934, 0.435593, 0.0879102
0.385009, 0.435859, 0.0849156
0.390103, 0.43614, 0.0817466
0.39555, 0.436803, 0.0742645
-0.242852, 0.44809, 0.0207562
-0.237018, 0.446344, 0.0401602
-0.231544, 0.445214, 0.0527062
-0.226294, 0.444477, 0.0608997
-0.221064, 0.443748, 0.0689993
-0.215903, 0.443126, 0.0759106
-0.21073, 0.442453, 0.0833941
-0.205615, 0.441871, 0.0898581
-0.200634, 0.441555, 0.0933719
-0.19569, 0.441309, 0.0961041
-0.190731, 0.441015, 0.099369
-0.185837, 0.440861, 0.101086
-0.180961, 0.44074, 0.10243
-0.176094, 0.440636, 0.103579
-0.171234, 0.440547, 0.104575
-0.16639, 0.440492, 0.105186
-0.161572, 0.440504, 0.105046
-0.156757, 0.440528, 0.104781
-0.15192, 0.440488, 0.105227
-0.14708, 0.440437, 0.105798
-0.142239, 0.440378, 0.106453
-0.137399, 0.440318, 0.107114
-0.132567, 0.440284, 0.1075
-0.127747, 0.440284, 0.107491
-0.122926, 0.440285, 0.107489
-0.118106, 0.440286, 0.107471
-0.113286, 0.44029, 0.107428
-0.108466, 0.440292, 0.107409
-0.103646, 0.440294, 0.107385
-0.0988257, 0.440297, 0.107355
-0.0940025, 0.440285, 0.10748
-0.0891801, 0.440276, 0.10758
-0.0843617, 0.440288, 0.107455
-0.0795456, 0.440313, 0.107176
-0.0747283, 0.440335, 0.106931
-0.0699204, 0.440418, 0.106004
-0.0651165, 0.440541, 0.104634
-0.0602992, 0.440585, 0.104145
-0.05547, 0.440544, 0.104606
-0.0506441, 0.440524, 0.104833
-0.0458144, 0.440462, 0.105522
-0.0409841, 0.440378, 0.106446
-0.0361556, 0.440296, 0.107365
-0.031329, 0.440214, 0.108278
-0.0265043, 0.440131, 0.109196
-0.0216818, 0.44006, 0.109988
-0.016861, 0.439992, 0.110737
-0.0120417, 0.439924, 0.11149
-0.00722389, 0.439856, 0.112247
-0.00240755, 0.439788, 0.113009
0.00240718, 0.43972, 0.113766
0.00722055, 0.439653, 0.114508
0.0120325, 0.439589, 0.115214
0.0168433, 0.43953, 0.115876
0.0216537, 0.43949, 0.116323
0.0264633, 0.439451, 0.116755
0.0312719, 0.43941, 0.117202
0.0360797, 0.439371, 0.117643
0.0408863, 0.439327, 0.118128
0.0456919, 0.439284, 0.118609
0.0504966, 0.43924, 0.119095
0.0553004, 0.439197, 0.119575
0.0601088, 0.439195, 0.119601
0.0649196, 0.43921, 0.119432
0.0697313, 0.439227, 0.119239
0.0745435, 0.439246, 0.119031
0.0793563, 0.439265, 0.118818
0.0841694, 0.439284, 0.118608
0.088983, 0.439303, 0.118394
0.0937976, 0.439326, 0.118145
0.0986281, 0.439417, 0.117134
0.103464, 0.43952, 0.115988
0.108303, 0.439631, 0.114748
0.113146, 0.439743, 0.113502
0.11799, 0.439855, 0.11226
0.122838, 0.439969, 0.110993
0.127685, 0.440072, 0.109851
0.132529, 0.440157, 0.108903
0.137375, 0.440243, 0.10795
0.142223, 0.440329, 0.106991
0.147073, 0.440415, 0.106037
0.151921, 0.44049, 0.105207
0.156768, 0.440558, 0.104453
0.161616, 0.440624, 0.103712
0.166464, 0.440688, 0.103006
0.171314, 0.440751, 0.102305
0.176165, 0.440815, 0.101598
0.181016, 0.440873, 0.100947
0.185849, 0.440888, 0.100787
0.190636, 0.440795, 0.101817
0.195429, 0.440722, 0.102633
0.200234, 0.440675, 0.103154
0.205051, 0.44066, 0.103322
0.209872, 0.440651, 0.103415
0.214694, 0.440646, 0.103473
0.219474, 0.440556, 0.104471
0.224235, 0.440433, 0.105841
0.228986, 0.440296, 0.107356
0.233695, 0.440085, 0.10971
0.238461, 0.439988, 0.110786
0.243224, 0.43989, 0.111876
0.247974, 0.439773, 0.113171
0.252707, 0.43963, 0.114767
0.257484, 0.439568, 0.115453
0.262264, 0.439513, 0.116065
0.267043, 0.439458, 0.116671
0.271825, 0.43941, 0.117202
0.276607, 0.439364, 0.117717
0.281387, 0.439316, 0.118248
0.286184, 0.439297, 0.118464
0.290983, 0.43928, 0.118657
0.295782, 0.439264, 0.118833
0.300582, 0.439251, 0.118974
0.305388, 0.439246, 0.11903
0.310207, 0.439259, 0.118883
0.315061, 0.439322, 0.118183
0.319918, 0.439386, 0.117468
0.324776, 0.43945, 0.116758
0.329636, 0.439515, 0.116043
0.334541, 0.439636, 0.114697
0.339495, 0.439819, 0.11266
0.344462, 0.440012, 0.110518
0.349433, 0.440205, 0.108372
0.354442, 0.44044, 0.105764
0.359575, 0.440821, 0.101522
0.364715, 0.4412, 0.0973148
0.369846, 0.441559, 0.0933213
0.374943, 0.441868, 0.0898895
0.380012, 0.442137, 0.0868998
0.385096, 0.442416, 0.0838056
0.390194, 0.442704, 0.0805979
0.39563, 0.443364, 0.0732651
-0.248417, 0.455842, 0.00749779
-0.242635, 0.454226, 0.0251927
-0.236897, 0.452628, 0.0426946
-0.231487, 0.451604, 0.053916
-0.226235, 0.450849, 0.0621781
-0.220967, 0.450028, 0.0711727
-0.215804, 0.44939, 0.0781622
-0.210644, 0.448728, 0.0854068
-0.205551, 0.448183, 0.0913825
-0.200592, 0.447909, 0.094378
-0.19565, 0.44766, 0.0971003
-0.190712, 0.447408, 0.0998673
-0.185835, 0.447291, 0.101147
-0.18096, 0.447173, 0.10244
-0.17609, 0.44706, 0.10368
-0.171231, 0.44697, 0.104664
-0.166394, 0.446932, 0.105077
-0.161575, 0.446945, 0.104937
-0.156759, 0.446964, 0.104732
-0.151946, 0.446995, 0.104392
-0.147106, 0.446945, 0.104932
-0.142266, 0.446893, 0.105508
-0.137428, 0.446841, 0.106078
-0.132591, 0.44679, 0.106633
-0.12777, 0.446794, 0.106596
-0.12295, 0.446798, 0.106543
-0.11813, 0.446803, 0.106495
-0.113309, 0.446808, 0.106442
-0.108488, 0.446811, 0.106403
-0.103667, 0.446812, 0.106389
-0.0988458, 0.446815, 0.10636
-0.0940243, 0.446816, 0.106346
-0.0891992, 0.446799, 0.106535
-0.084374, 0.44678, 0.106739
-0.0795509, 0.446771, 0.106848
-0.0747408, 0.446837, 0.106115
-0.0699317, 0.44692, 0.105208
-0.0651222, 0.447012, 0.104206
-0.060305, 0.447061, 0.103667
-0.0554748, 0.447014, 0.104178
-0.0506471, 0.446981, 0.104544
-0.0458174, 0.446921, 0.105205
-0.0409868, 0.446836, 0.106128
-0.036158, 0.446752, 0.107046
-0.031331, 0.446669, 0.107959
-0.026506, 0.446585, 0.108877
-0.0216827, 0.446502, 0.109789
-0.0168612, 0.44642, 0.110687
-0.0120416, 0.446344, 0.111519
-0.00722374, 0.446268, 0.112347
-0.00240745, 0.44619, 0.113208
0.00240703, 0.446112, 0.114064
0.00721999, 0.446037, 0.114886
0.0120315, 0.445968, 0.115643
0.0168418, 0.445905, 0.116323
0.0216516, 0.445863, 0.11679
0.0264606, 0.44582, 0.117262
0.0312684, 0.445775, 0.117749
0.0360753, 0.445731, 0.118229
0.0408814, 0.445687, 0.118715
0.0456864, 0.445643, 0.119195
0.0504906, 0.4456, 0.119671
0.0552939, 0.445556, 0.120151
0.0601016, 0.445553, 0.120187
0.064912, 0.445569, 0.120009
0.0697228, 0.445585, 0.119836
0.0745338, 0.4456, 0.119668
0.0793458, 0.445619, 0.119463
0.0841582, 0.445638, 0.119255
0.0889712, 0.445657, 0.11904
0.0937851, 0.44568, 0.118792
0.0986151, 0.445772, 0.11778
0.103447, 0.445864, 0.116774
0.108281, 0.445957, 0.115762
0.113117, 0.446049, 0.114745
0.117955, 0.446142, 0.113733
0.122795, 0.446235, 0.112715
0.127638, 0.446333, 0.111643
0.132481, 0.446419, 0.110695
0.137325, 0.446506, 0.109742
0.142171, 0.446594, 0.108783
0.147019, 0.446681, 0.107829
0.151869, 0.446768, 0.10688
0.156721, 0.446855, 0.105926
0.161568, 0.446925, 0.105155
0.166415, 0.446989, 0.10445
0.171267, 0.447063, 0.10364
0.176121, 0.447139, 0.102814
0.180977, 0.447214, 0.101993
0.185786, 0.447172, 0.10245
0.190579, 0.447096, 0.103281
0.195372, 0.447024, 0.104066
0.200184, 0.446997, 0.104368
0.204994, 0.446966, 0.104705
0.209813, 0.446957, 0.104808
0.214629, 0.446942, 0.104965
0.219402, 0.446841, 0.106072
0.224151, 0.446694, 0.107682
0.228891, 0.446538, 0.109395
0.233649, 0.446422, 0.110665
0.238407, 0.44631, 0.111889
0.243169, 0.446212, 0.112969
0.247929, 0.446113, 0.114055
0.252689, 0.446016, 0.115114
0.257473, 0.445966, 0.115661
0.262257, 0.445917, 0.116192
0.267041, 0.44587, 0.116709
0.271823, 0.445822, 0.117239
0.276604, 0.445774, 0.117765
0.281396, 0.445743, 0.118096
0.286195, 0.445726, 0.118284
0.291, 0.445719, 0.118365
0.295806, 0.445714, 0.118423
0.300613, 0.445708, 0.118485
0.305419, 0.445703, 0.118541
0.310259, 0.445747, 0.118056
0.315114, 0.44581, 0.117366
0.319971, 0.445874, 0.116671
0.32483, 0.445939, 0.115952
0.329691, 0.446005, 0.115236
0.33462, 0.446159, 0.113543
0.33957, 0.446338, 0.111586
0.344533, 0.446527, 0.109514
0.349505, 0.446723, 0.107368
0.35453, 0.446981, 0.104541
0.359664, 0.447367, 0.100309
0.364797, 0.447742, 0.0962024
0.369928, 0.448104, 0.0922394
0.37502, 0.448411, 0.0888772
0.380094, 0.448689, 0.0858383
0.385187, 0.448981, 0.0826354
0.390287, 0.449274, 0.0794282
0.39571, 0.449928, 0.0722651
-0.248046, 0.46171, 0.014957
-0.242568, 0.460635, 0.0265632
-0.236877, 0.459101, 0.043118
-0.231475, 0.458076, 0.0541887
-0.226197, 0.457257, 0.0630269
-0.220917, 0.456401, 0.0722785
-0.21573, 0.4557, 0.0798454
-0.210595, 0.455078, 0.0865612
-0.205563, 0.454656, 0.0911136
-0.200555, 0.454268, 0.0953031
-0.195611, 0.45401, 0.0980949
-0.190709, 0.453839, 0.0999365
-0.185832, 0.453721, 0.101214
-0.180959, 0.453603, 0.102489
-0.176087, 0.453484, 0.103768
-0.171237, 0.453417, 0.104494
-0.166401, 0.453381, 0.104877
-0.161579, 0.453385, 0.104836
-0.15676, 0.4534, 0.104681
-0.151948, 0.453431, 0.10434
-0.147132, 0.453457, 0.104065
-0.142291, 0.453403, 0.104641
-0.137456, 0.453363, 0.105072
-0.132624, 0.453332, 0.105408
-0.127796, 0.453314, 0.105609
-0.122975, 0.453318, 0.105566
-0.118153, 0.453322, 0.105518
-0.113332, 0.453327, 0.105464
-0.10851, 0.453331, 0.105416
-0.103688, 0.453335, 0.105382
-0.0988659, 0.453336, 0.105363
-0.0940444, 0.453342, 0.105299
-0.0892197, 0.453332, 0.105408
-0.0843937, 0.453314, 0.105602
-0.0795695, 0.453305, 0.105701
-0.0747531, 0.453342, 0.105307
-0.0699431, 0.453425, 0.104411
-0.0651366, 0.453544, 0.103119
-0.0603133, 0.453555, 0.102999
-0.0554808, 0.453495, 0.103649
-0.0506505, 0.453443, 0.104215
-0.0458203, 0.45338, 0.104895
-0.0409894, 0.453295, 0.105808
-0.0361605, 0.453212, 0.106706
-0.0313334, 0.453129, 0.107599
-0.0265081, 0.453046, 0.108497
-0.0216844, 0.452963, 0.10939
-0.0168626, 0.452881, 0.110277
-0.0120427, 0.452804, 0.111109
-0.00722444, 0.452733, 0.111876
-0.00240773, 0.452662, 0.112648
0.0024073, 0.452582, 0.113504
0.00722076, 0.452503, 0.114366
0.0120325, 0.452423, 0.115222
0.0168428, 0.452348, 0.116032
0.0216524, 0.452293, 0.116629
0.0264608, 0.452238, 0.117219
0.0312679, 0.452183, 0.117815
0.036074, 0.452127, 0.118416
0.0408789, 0.452072, 0.119011
0.0456827, 0.452018, 0.1196
0.0504852, 0.451963, 0.120196
0.0552872, 0.451913, 0.120735
0.0600944, 0.451909, 0.120772
0.0649042, 0.451926, 0.120593
0.0697144, 0.451942, 0.12042
0.0745249, 0.451957, 0.120252
0.0793358, 0.451973, 0.120078
0.084147, 0.451989, 0.119909
0.0889593, 0.452009, 0.119695
0.0937726, 0.452032, 0.119446
0.0986019, 0.452126, 0.118435
0.103433, 0.45222, 0.117418
0.108267, 0.452314, 0.116406
0.113102, 0.452407, 0.1154
0.117939, 0.4525, 0.114388
0.122778, 0.452594, 0.11338
0.127619, 0.452685, 0.112397
0.13246, 0.452771, 0.111469
0.137302, 0.452856, 0.110546
0.142147, 0.452942, 0.109617
0.146993, 0.453029, 0.108683
0.151842, 0.453115, 0.107754
0.156691, 0.4532, 0.10684
0.161542, 0.453281, 0.10596
0.166392, 0.453357, 0.105145
0.171243, 0.453433, 0.104324
0.176097, 0.45351, 0.103489
0.180948, 0.453576, 0.102777
0.185737, 0.453487, 0.103732
0.190532, 0.453417, 0.104494
0.195323, 0.453341, 0.105309
0.200132, 0.453312, 0.10563
0.204939, 0.453277, 0.106007
0.209756, 0.453265, 0.10613
0.214564, 0.453235, 0.106456
0.219341, 0.453144, 0.107443
0.224083, 0.452985, 0.109161
0.228832, 0.452846, 0.110656
0.233627, 0.452802, 0.11113
0.238404, 0.452727, 0.111946
0.243159, 0.452612, 0.113185
0.24791, 0.452497, 0.114429
0.252691, 0.452437, 0.115071
0.257475, 0.452387, 0.115617
0.262258, 0.452335, 0.116169
0.267041, 0.452285, 0.116715
0.271822, 0.452234, 0.117266
0.276608, 0.452194, 0.117693
0.281415, 0.452189, 0.117755
0.286222, 0.452183, 0.117813
0.291029, 0.452178, 0.117875
0.295836, 0.452172, 0.117932
0.300643, 0.452166, 0.117994
0.305457, 0.452172, 0.117931
0.310311, 0.452237, 0.117237
0.315167, 0.4523, 0.116547
0.320024, 0.452365, 0.115853
0.324883, 0.45243, 0.115153
0.329751, 0.452505, 0.114338
0.334699, 0.452686, 0.112387
0.339651, 0.452868, 0.11042
0.344607, 0.45305, 0.108458
0.349576, 0.453243, 0.106371
0.354619, 0.453526, 0.103317
0.359747, 0.453909, 0.0991855
0.36488, 0.454288, 0.0950885
0.370009, 0.454651, 0.091166
0.375098, 0.454957, 0.0878634
0.380185, 0.455253, 0.0846663
0.385279, 0.45555, 0.0814643
0.39038, 0.455848, 0.0782471
0.395791, 0.456496, 0.0712538
-0.247948, 0.468074, 0.0169234
-0.242546, 0.467125, 0.0270262
-0.236898, 0.465655, 0.0426745
-0.231496, 0.464616, 0.0537338
-0.226188, 0.463727, 0.0632081
-0.220934, 0.46291, 0.0719018
-0.215684, 0.462065, 0.0808997
-0.210549, 0.461433, 0.0876245
-0.205572, 0.461127, 0.0908833
-0.200575, 0.460758, 0.0948133
-0.195586, 0.460391, 0.0987191
-0.190708, 0.460273, 0.0999732
-0.185832, 0.460155, 0.101232
-0.180958, 0.460036, 0.102496
-0.176089, 0.459923, 0.103705
-0.171249, 0.459879, 0.104173
-0.166412, 0.459843, 0.104556
-0.161584, 0.459833, 0.104664
-0.156763, 0.45984, 0.104588
-0.151949, 0.459867, 0.104298
-0.147137, 0.459904, 0.103903
-0.142326, 0.459947, 0.103444
-0.137493, 0.459917, 0.103765
-0.132659, 0.459884, 0.104111
-0.127826, 0.459852, 0.104452
-0.123, 0.459842, 0.104568
-0.118177, 0.459844, 0.10454
-0.113354, 0.459849, 0.104487
-0.108532, 0.459854, 0.104438
-0.103709, 0.459859, 0.104384
-0.0988861, 0.459861, 0.104365
-0.0940634, 0.459866, 0.104311
-0.0892404, 0.459869, 0.104271
-0.0844133, 0.459851, 0.104465
-0.079589, 0.459847, 0.104505
-0.0747704, 0.459878, 0.10418
-0.0699568, 0.459946, 0.103452
-0.0651511, 0.46008, 0.102032
-0.0603238, 0.46007, 0.10214
-0.0554908, 0.46001, 0.102771
-0.0506587, 0.459949, 0.103426
-0.045827, 0.459878, 0.104175
-0.0409951, 0.459788, 0.105138
-0.0361646, 0.459693, 0.106146
-0.0313362, 0.459598, 0.107158
-0.0265103, 0.459511, 0.108086
-0.0216863, 0.459427, 0.108978
-0.016864, 0.459343, 0.109875
-0.0120437, 0.459266, 0.110697
-0.00722503, 0.459193, 0.111475
-0.00240792, 0.45912, 0.112247
0.00240755, 0.459048, 0.113013
0.00722159, 0.458974, 0.113804
0.0120339, 0.458893, 0.11467
0.0168447, 0.458816, 0.11548
0.0216548, 0.45876, 0.116077
0.0264638, 0.458705, 0.116668
0.0312715, 0.458649, 0.117264
0.0360781, 0.458593, 0.117854
0.0408837, 0.45854, 0.118429
0.0456887, 0.45849, 0.118959
0.0504925, 0.458439, 0.119494
0.0552952, 0.458389, 0.120034
0.0601013, 0.458372, 0.120209
0.0649093, 0.458372, 0.120211
0.0697169, 0.458369, 0.120247
0.0745244, 0.458365, 0.120287
0.0793318, 0.458362, 0.120322
0.0841392, 0.458358, 0.120362
0.0889479, 0.458362, 0.120317
0.09376, 0.458383, 0.120098
0.0985887, 0.458478, 0.119087
0.103419, 0.458572, 0.118081
0.108252, 0.458667, 0.117069
0.113086, 0.458762, 0.116062
0.117923, 0.458857, 0.115051
0.122762, 0.458951, 0.114043
0.127601, 0.459043, 0.113071
0.132441, 0.45913, 0.112142
0.137284, 0.459218, 0.111209
0.142128, 0.459305, 0.110281
0.146973, 0.459391, 0.109367
0.15182, 0.459476, 0.108458
0.156669, 0.459562, 0.107543
0.161519, 0.459646, 0.106654
0.166368, 0.459722, 0.105839
0.17122, 0.459802, 0.104989
0.176076, 0.459887, 0.104084
0.1809, 0.459888, 0.104068
0.18569, 0.459803, 0.104973
0.190473, 0.459708, 0.105992
0.195274, 0.459656, 0.106539
0.200071, 0.4596, 0.107139
0.204884, 0.459583, 0.107317
0.2097, 0.459572, 0.107439
0.2145, 0.459528, 0.107904
0.219275, 0.459433, 0.108922
0.224025, 0.459292, 0.110421
0.228782, 0.459169, 0.111725
0.23359, 0.459153, 0.111901
0.238402, 0.459145, 0.111982
0.243157, 0.459029, 0.113221
0.247914, 0.458922, 0.114355
0.252699, 0.45887, 0.114907
0.257484, 0.458819, 0.115454
0.262267, 0.458767, 0.116005
0.267046, 0.45871, 0.116611
0.271817, 0.458641, 0.117351
0.276626, 0.458637, 0.117389
0.281439, 0.458642, 0.117342
0.286248, 0.458638, 0.117381
0.291056, 0.458634, 0.117423
0.295864, 0.45863, 0.11747
0.300672, 0.458626, 0.117512
0.305508, 0.458663, 0.117111
0.310363, 0.458729, 0.116417
0.31522, 0.458793, 0.115727
0.320078, 0.458859, 0.115033
0.324937, 0.458923, 0.114343
0.329829, 0.459032, 0.113181
0.334779, 0.459217, 0.111219
0.339731, 0.4594, 0.109263
0.344689, 0.459585, 0.107301
0.34965, 0.459769, 0.105335
0.354703, 0.460068, 0.102151
0.359829, 0.460452, 0.0980701
0.364963, 0.460837, 0.0939732
0.370091, 0.461202, 0.0900807
0.375194, 0.461529, 0.0866008
0.380286, 0.461834, 0.083354
0.385386, 0.46214, 0.0801024
0.390491, 0.462445, 0.0768561
0.395939, 0.463143, 0.0694165
-0.253354, 0.475551, 0.00715113
