0.186061, 0.589597, 0.0951824
0.190859, 0.589488, 0.0960894
0.195703, 0.589526, 0.0957708
0.200478, 0.589356, 0.0971828
0.205235, 0.589144, 0.0989475
0.209961, 0.588855, 0.101351
0.214702, 0.58862, 0.103302
0.219484, 0.588506, 0.104257
0.224264, 0.588391, 0.105216
0.229042, 0.588277, 0.106159
0.233827, 0.588183, 0.10694
0.238689, 0.588285, 0.106097
0.243553, 0.588385, 0.10526
0.248418, 0.588486, 0.104417
0.253285, 0.588587, 0.10358
0.258154, 0.588688, 0.102736
0.263027, 0.588795, 0.101849
0.267937, 0.588979, 0.100321
0.27285, 0.589162, 0.0987988
0.277765, 0.589346, 0.097271
0.282684, 0.58953, 0.0957384
0.287606, 0.589713, 0.0942101
0.292547, 0.58993, 0.0924091
0.297496, 0.590155, 0.0905347
0.302449, 0.590381, 0.0886545
0.307406, 0.590607, 0.0867796
0.312366, 0.590833, 0.0848985
0.317401, 0.59119, 0.0819235
0.322498, 0.59165, 0.0781016
0.327603, 0.592112, 0.0742545
0.332748, 0.592631, 0.0699382
0.338065, 0.593438, 0.0632291
0.343424, 0.594293, 0.0561094
0.348861, 0.595259, 0.0480747
0.354298, 0.596198, 0.0402637
0.359912, 0.597405, 0.0302205
0.425716, 0.600431, 0.00504875
0.429943, 0.599464, 0.0130982
0.434543, 0.599031, 0.0167003
0.439319, 0.598848, 0.0182195
0.444209, 0.598823, 0.0184278
0.44932, 0.599094, 0.0161777
0.454562, 0.59953, 0.0125494
0.460104, 0.600349, 0.00573254
0.648464, 0.601617, -0.00481176
0.652158, 0.600478, 0.00466204
0.656243, 0.599713, 0.0110264
0.660767, 0.599358, 0.0139785
0.665484, 0.599181, 0.0154486
0.670416, 0.599199, 0.0152988
0.67565, 0.599485, 0.0129194
0.680601, 0.599519, 0.0126414
0.685568, 0.599564, 0.01226
0.691518, 0.600463, 0.00478172
0.696987, 0.600936, 0.000850201
0.702366, 0.601324, -0.00237751
-0.376354, 0.606757, 0.00699282
-0.370952, 0.60597, 0.0134726
-0.366069, 0.60602, 0.0130568
-0.36106, 0.605861, 0.014369
-0.356278, 0.606082, 0.012548
-0.351846, 0.606914, 0.00569963
-0.252784, 0.605373, 0.0183806
-0.247609, 0.604722, 0.0237403
-0.242588, 0.604427, 0.0261698
-0.237551, 0.604081, 0.0290112
-0.232496, 0.603674, 0.0323634
-0.227516, 0.603447, 0.0342326
-0.222494, 0.603099, 0.0370989
-0.217389, 0.6025, 0.0420237
-0.212424, 0.602275, 0.0438776
-0.207435, 0.601969, 0.046392
-0.202484, 0.601761, 0.0481071
-0.197546, 0.601579, 0.0495996
-0.192625, 0.601446, 0.0507002
-0.187716, 0.601342, 0.0515571
-0.182805, 0.601225, 0.0525184
-0.177893, 0.601099, 0.0535541
-0.172976, 0.60095, 0.0547824
-0.168062, 0.6008, 0.056016
-0.16315, 0.60065, 0.0572443
-0.15824, 0.600501, 0.0584779
-0.15334, 0.60038, 0.0594678
-0.148454, 0.600307, 0.0600748
-0.143577, 0.600263, 0.06043
-0.138699, 0.60022, 0.0607891
-0.133828, 0.600197, 0.0609746
-0.128957, 0.600175, 0.0611544
-0.124086, 0.600154, 0.0613294
-0.119187, 0.599991, 0.0626702
-0.114273, 0.59973, 0.0648198
-0.10938, 0.599562, 0.0661998
-0.104505, 0.599486, 0.0668306
-0.0996099, 0.599279, 0.0685282
-0.0947062, 0.598996, 0.0708556
-0.0897976, 0.59865, 0.0737033
-0.0849184, 0.598472, 0.0751672
-0.0800579, 0.598412, 0.0756631
-0.0752205, 0.598529, 0.0747042
-0.0703932, 0.598747, 0.072906
-0.0655696, 0.599031, 0.0705671
-0.0607347, 0.599249, 0.0687785
-0.0558841, 0.599337, 0.0680571
-0.0510323, 0.599426, 0.0673199
-0.0461788, 0.599514, 0.0665979
-0.0413239, 0.599602, 0.0658703
-0.0364636, 0.599624, 0.0656943
-0.031603, 0.599647, 0.0655022
-0.026742, 0.599669, 0.0653248
-0.0218805, 0.599686, 0.0651822
-0.0170186, 0.599704, 0.0650339
-0.0121566, 0.599726, 0.0648513
-0.00729523, 0.599832, 0.0639782
-0.00243171, 0.599834, 0.0639629
0.00243144, 0.599768, 0.0645094
0.00729395, 0.599727, 0.0648422
0.0121558, 0.599687, 0.0651689
0.017017, 0.599647, 0.0655003
0.0218776, 0.599607, 0.0658274
0.0267375, 0.599567, 0.0661583
0.0315898, 0.599397, 0.0675569
0.0364381, 0.599205, 0.0691385
0.0412833, 0.599012, 0.0707245
0.0461254, 0.59882, 0.0723057
0.0509644, 0.598629, 0.0738816
0.0558002, 0.598437, 0.0754619
0.0606329, 0.598244, 0.0770473
0.0654656, 0.598081, 0.0783887
0.0702985, 0.597942, 0.0795364
0.0751308, 0.597815, 0.0805802
0.0799611, 0.597689, 0.0816178
0.0847892, 0.597562, 0.0826612
0.0896154, 0.597436, 0.0836983
0.0944396, 0.59731, 0.0847306
0.0992701, 0.597235, 0.085351
0.104103, 0.597182, 0.0857868
0.108936, 0.597128, 0.0862279
0.113769, 0.597086, 0.0865736
0.118602, 0.597046, 0.0869045
0.123435, 0.597005, 0.0872407
0.128266, 0.596963, 0.0875912
0.133095, 0.596911, 0.0880156
0.137925, 0.596866, 0.0883856
0.142753, 0.596821, 0.0887599
0.147581, 0.596776, 0.089128
0.152416, 0.596759, 0.0892639
0.157251, 0.596748, 0.089355
0.162081, 0.596718, 0.0896087
0.166911, 0.596687, 0.0898581
0.17174, 0.596656, 0.0901113
0.176569, 0.596625, 0.0903692
0.181375, 0.596522, 0.0912175
0.186177, 0.59641, 0.0921392
0.190979, 0.596305, 0.0930066
0.195801, 0.596266, 0.0933232
0.200568, 0.596066, 0.0949736
0.205291, 0.595748, 0.0975909
0.209986, 0.595363, 0.100757
0.214753, 0.595194, 0.102144
0.219533, 0.595071, 0.103157
0.224312, 0.594949, 0.104166
0.229089, 0.594827, 0.105169
0.233914, 0.594833, 0.105115
0.2388, 0.59499, 0.103827
0.243688, 0.595146, 0.102544
0.248579, 0.595302, 0.101255
0.253472, 0.595458, 0.0999718
0.258356, 0.595587, 0.0989108
0.263248, 0.59573, 0.0977359
0.268162, 0.595915, 0.0962086
0.273079, 0.5961, 0.094687
0.277998, 0.596286, 0.0931597
0.282921, 0.596472, 0.0916271
0.287847, 0.596658, 0.0900993
0.292794, 0.59688, 0.0882692
0.297747, 0.597108, 0.0863948
0.302753, 0.597432, 0.0837326
0.307796, 0.59782, 0.0805407
0.312844, 0.598202, 0.0773926
0.317925, 0.598637, 0.0738139
0.323077, 0.59919, 0.0692596
0.328347, 0.599942, 0.063077
0.333677, 0.60078, 0.0561752
0.338967, 0.601523, 0.0500627
0.344526, 0.602717, 0.0402417
0.350186, 0.60405, 0.0292687
0.426015, 0.607419, 0.00154161
0.430524, 0.606834, 0.00635624
0.434619, 0.605684, 0.0158229
0.439245, 0.605292, 0.0190525
0.444105, 0.605226, 0.0195966
0.449109, 0.605356, 0.0185242
0.454241, 0.605655, 0.0160618
0.459568, 0.606203, 0.011549
0.465138, 0.607059, 0.00451136
0.648488, 0.608214, -0.0049963
0.652175, 0.607056, 0.0045352
0.656286, 0.606306, 0.0107021
0.660834, 0.605969, 0.0134759
0.665547, 0.605787, 0.0149755
0.67056, 0.605878, 0.014225
0.675759, 0.606135, 0.0121121
0.680703, 0.606162, 0.0118928
0.685745, 0.606274, 0.0109706
0.691803, 0.607277, 0.00271654
0.697197, 0.607686, -0.000654221
0.702577, 0.608078, -0.0038805
-0.380773, 0.612513, 0.0135374
-0.375507, 0.611938, 0.0182199
-0.370497, 0.61177, 0.0195823
-0.365818, 0.612152, 0.0164752
-0.360652, 0.611719, 0.0200043
-0.355898, 0.611981, 0.0178671
-0.3511, 0.612175, 0.0162878
-0.346311, 0.612389, 0.014545
-0.34191, 0.613306, 0.00708294
-0.252911, 0.612226, 0.0158758
-0.247662, 0.611391, 0.0226717
-0.242612, 0.611023, 0.0256658
-0.237595, 0.610724, 0.0281005
-0.232534, 0.6103, 0.0315514
-0.227523, 0.609989, 0.0340843
-0.222481, 0.609582, 0.0373964
-0.217386, 0.609007, 0.0420818
-0.212386, 0.608678, 0.0447588
-0.207406, 0.608391, 0.0470943
-0.202472, 0.608229, 0.0484133
-0.197539, 0.608063, 0.0497661
-0.192637, 0.607985, 0.0504003
-0.187732, 0.607895, 0.0511284
-0.18282, 0.607776, 0.0520997
-0.177917, 0.607679, 0.0528865
-0.173019, 0.607598, 0.0535502
-0.168123, 0.607517, 0.0542088
-0.163228, 0.607436, 0.0548706
-0.158325, 0.607317, 0.0558357
-0.153426, 0.607208, 0.0567265
-0.148528, 0.607099, 0.0576115
-0.143644, 0.60704, 0.058095
-0.138768, 0.607009, 0.0583453
-0.133894, 0.606987, 0.0585203
-0.129018, 0.606951, 0.0588193
-0.124141, 0.606913, 0.0591235
-0.119283, 0.606966, 0.0586977
-0.11443, 0.607045, 0.0580482
-0.109547, 0.606972, 0.0586438
-0.104641, 0.606758, 0.0603862
-0.0997588, 0.606663, 0.0611601
-0.0948706, 0.606524, 0.0622964
-0.0899641, 0.606245, 0.0645685
-0.0850737, 0.606049, 0.0661607
-0.0801451, 0.605541, 0.0702982
-0.0752679, 0.60538, 0.0716023
-0.0704272, 0.605512, 0.0705295
-0.0655982, 0.605772, 0.068419
-0.0607662, 0.606041, 0.0662231
-0.0559148, 0.606148, 0.0653529
-0.0510625, 0.606265, 0.0643983
-0.0462083, 0.606382, 0.063448
-0.0413512, 0.606485, 0.0626111
-0.0364918, 0.606576, 0.0618691
-0.0316282, 0.606614, 0.0615582
-0.0267656, 0.606686, 0.0609736
-0.0219027, 0.606784, 0.0601754
-0.0170381, 0.606881, 0.0593829
-0.0121725, 0.607001, 0.0584059
-0.00730499, 0.607128, 0.0573745
-0.00243546, 0.607253, 0.0563564
0.00243556, 0.607279, 0.0561485
0.0073059, 0.607204, 0.0567589
0.012175, 0.60713, 0.0573635
0.017043, 0.607055, 0.0579739
0.0219097, 0.60698, 0.058578
0.0267753, 0.606906, 0.0591869
0.0316378, 0.606798, 0.0600595
0.0364934, 0.606602, 0.0616603
0.0413458, 0.606406, 0.0632563
0.0461952, 0.60621, 0.0648475
0.0510413, 0.606014, 0.0664425
0.0558844, 0.605819, 0.0680332
0.0607243, 0.605623, 0.0696273
0.0655622, 0.605439, 0.0711279
0.070403, 0.605304, 0.072226
0.0752412, 0.605166, 0.073349
0.0800717, 0.604986, 0.0748134
0.0848992, 0.604806, 0.076283
0.0897239, 0.604626, 0.0777473
0.0945492, 0.604468, 0.0790277
0.0993823, 0.604374, 0.0797968
0.104221, 0.604319, 0.0802426
0.109059, 0.604265, 0.0806832
0.113895, 0.60421, 0.0811286
0.118732, 0.604157, 0.0815592
0.123569, 0.604116, 0.0818949
0.128406, 0.604073, 0.0822453
0.13324, 0.60402, 0.0826802
0.138073, 0.603968, 0.0830994
0.142906, 0.60392, 0.0834932
0.147739, 0.603875, 0.0838628
0.152572, 0.603829, 0.0842366
0.1574, 0.603771, 0.0847044
0.162223, 0.603695, 0.0853252
0.16704, 0.603603, 0.0860705
0.171855, 0.603511, 0.0868196
0.176679, 0.603452, 0.0873055
0.181488, 0.603346, 0.0881643
0.186292, 0.603232, 0.0890961
0.191099, 0.60313, 0.0899239
0.195903, 0.603028, 0.0907559
0.20068, 0.602845, 0.0922475
0.205405, 0.602522, 0.0948734
0.210127, 0.602202, 0.0974746
0.214895, 0.602028, 0.0988908
0.219679, 0.601904, 0.0999041
0.22447, 0.601804, 0.100714
0.22928, 0.601761, 0.101073
0.23413, 0.601818, 0.100604
0.23902, 0.601976, 0.0993156
0.243913, 0.602135, 0.0980229
0.248802, 0.602278, 0.0968637
0.253685, 0.602402, 0.0958476
0.258571, 0.602528, 0.0948267
0.26347, 0.602677, 0.0936127
0.268387, 0.602864, 0.0920863
0.273309, 0.603052, 0.0905547
0.278232, 0.60324, 0.0890274
0.283159, 0.603427, 0.0875058
0.288137, 0.603716, 0.085156
0.293164, 0.604095, 0.082068
0.298203, 0.604487, 0.0788765
0.303247, 0.604876, 0.0757098
0.308302, 0.605275, 0.0724587
0.313458, 0.605858, 0.0677176
0.318664, 0.606516, 0.0623569
0.323944, 0.607293, 0.0560317
0.329382, 0.608341, 0.047503
0.334844, 0.6094, 0.0388808
0.340686, 0.61111, 0.0249567
0.430531, 0.613404, 0.00627947
0.434735, 0.612395, 0.0144992
0.439309, 0.611924, 0.0183315
0.444032, 0.611668, 0.0204177
0.448898, 0.611614, 0.0208573
0.453995, 0.611871, 0.0187616
0.459054, 0.612072, 0.0171256
0.464382, 0.612625, 0.0126281
0.469729, 0.613189, 0.00803709
0.475071, 0.613736, 0.00358009
0.646489, 0.617591, -0.0278039
0.648397, 0.614703, -0.00429583
0.652188, 0.613631, 0.00443602
0.656329, 0.612901, 0.0103755
0.660898, 0.61258, 0.0129919
0.665607, 0.612391, 0.0145292
0.670699, 0.612556, 0.0131893
0.675861, 0.61278, 0.0113621
0.68082, 0.61282, 0.011035
0.685925, 0.612989, 0.00966072
0.692061, 0.614071, 0.0008564
0.697405, 0.61444, -0.00214863
0.702787, 0.614836, -0.00537539
-0.385547, 0.61884, 0.0153418
-0.380359, 0.618391, 0.018961
-0.375315, 0.618165, 0.0207734
-0.370329, 0.618033, 0.0218387
-0.365419, 0.618025, 0.0219083
-0.36055, 0.618085, 0.0214205
-0.3556, 0.618009, 0.0220346
-0.350836, 0.618256, 0.0200405
-0.346034, 0.618445, 0.0185256
-0.34135, 0.61885, 0.0152636
-0.253186, 0.619445, 0.0104656
-0.247776, 0.618214, 0.0203819
-0.242647, 0.617647, 0.0249524
-0.237623, 0.61733, 0.0275049
-0.232585, 0.616963, 0.0304594
-0.227529, 0.61653, 0.0339446
-0.222448, 0.61601, 0.0381384
-0.217364, 0.615458, 0.0425849
-0.212359, 0.615108, 0.0454006
-0.207396, 0.614869, 0.0473294
-0.202461, 0.6147, 0.048687
-0.19755, 0.614601, 0.0494847
-0.192648, 0.614523, 0.0501094
-0.187747, 0.614444, 0.0507483
-0.182838, 0.614337, 0.05161
-0.177939, 0.614255, 0.052268
-0.173042, 0.614178, 0.0528913
-0.16815, 0.614112, 0.0534201
-0.163259, 0.614047, 0.0539446
-0.158368, 0.613982, 0.0544724
-0.153479, 0.613917, 0.0549955
-0.148591, 0.61385, 0.0555339
-0.143705, 0.61379, 0.0560169
-0.138828, 0.613768, 0.0561981
-0.133951, 0.613738, 0.0564322
-0.129072, 0.6137, 0.0567412
-0.124195, 0.613669, 0.0569954
-0.119344, 0.613767, 0.0562029
-0.11449, 0.613862, 0.0554347
-0.109645, 0.614014, 0.0542145
-0.104808, 0.614222, 0.0525336
-0.0999188, 0.614135, 0.0532374
-0.0950015, 0.613856, 0.0554852
-0.0901084, 0.613711, 0.0566549
-0.0852095, 0.613508, 0.0582862
-0.0803157, 0.61332, 0.0598035
-0.0754223, 0.61311, 0.0614944
-0.0704919, 0.612551, 0.0659976
-0.0656372, 0.612614, 0.0654855
-0.0607968, 0.612832, 0.0637374
-0.0559565, 0.613089, 0.061666
-0.0511006, 0.613207, 0.0607114
-0.0462414, 0.613307, 0.0599098
-0.0413856, 0.613481, 0.0585079
-0.0365271, 0.613655, 0.0571008
-0.0316658, 0.613831, 0.0556884
-0.0267996, 0.613954, 0.0546975
-0.0219307, 0.61406, 0.0538402
-0.0170609, 0.614192, 0.0527792
-0.0121895, 0.614349, 0.0515151
-0.00731551, 0.614505, 0.0502548
-0.00243909, 0.614662, 0.0489898
0.00243971, 0.61482, 0.0477195
0.00731931, 0.614825, 0.0476842
0.0121963, 0.614693, 0.0487456
0.0170711, 0.61456, 0.0498118
0.0219458, 0.61448, 0.050456
0.0268194, 0.614406, 0.051055
0.0316916, 0.61433, 0.0516691
0.0365604, 0.614216, 0.0525856
0.0414231, 0.614036, 0.0540323
0.04628, 0.613819, 0.0557818
0.0511272, 0.613526, 0.0581412
0.0559698, 0.613234, 0.0604954
0.060816, 0.613025, 0.0621796
0.0656599, 0.612826, 0.0637789
0.0705048, 0.612663, 0.0650949
0.0753503, 0.612525, 0.0662079
0.0801938, 0.612389, 0.0673051
0.085035, 0.612252, 0.0684071
0.0898693, 0.612082, 0.0697718
0.0946988, 0.6119, 0.0712409
0.0995254, 0.611717, 0.0727143
0.104364, 0.611621, 0.0734882
0.109202, 0.611531, 0.0742164
0.114038, 0.611438, 0.0749598
0.118873, 0.611348, 0.0756874
0.123707, 0.611256, 0.0764298
0.128546, 0.611199, 0.0768895
0.133385, 0.611146, 0.0773149
0.138223, 0.611093, 0.0777445
0.143061, 0.611039, 0.0781779
0.147898, 0.610987, 0.0785966
0.152735, 0.61094, 0.07897
0.157568, 0.61088, 0.0794578
0.1624, 0.610816, 0.0799704
0.167229, 0.61075, 0.0805068
0.17205, 0.610658, 0.0812469
0.17687, 0.610565, 0.0819912
0.181672, 0.610417, 0.0831861
0.186478, 0.610293, 0.084188
0.191286, 0.610178, 0.085115
0.196068, 0.609991, 0.0866208
0.200838, 0.609772, 0.0883794
0.205569, 0.609452, 0.0909562
0.210269, 0.609056, 0.094152
0.215041, 0.608879, 0.0955772
0.219856, 0.608833, 0.0959473
0.224671, 0.608786, 0.0963206
0.229486, 0.608741, 0.0966892
0.234346, 0.608816, 0.0960808
0.239239, 0.608972, 0.0948238
0.244123, 0.6091, 0.0937982
0.249009, 0.609226, 0.0927787
0.253897, 0.609352, 0.0917635
0.258786, 0.609478, 0.0907526
0.263691, 0.609635, 0.089489
0.268638, 0.609881, 0.0875072
0.273639, 0.610239, 0.0846186
0.278644, 0.610595, 0.0817547
0.283627, 0.610888, 0.0793915
0.288614, 0.611182, 0.0770221
0.293643, 0.611554, 0.0740252
0.298741, 0.612054, 0.0700021
0.303865, 0.612592, 0.0656672
0.30905, 0.613233, 0.0605059
0.314343, 0.614065, 0.0538049
0.319736, 0.615066, 0.045742
0.325285, 0.616329, 0.0355668
0.430699, 0.620207, 0.00433302
0.435403, 0.619896, 0.00683641
0.439441, 0.618654, 0.0168381
0.444067, 0.618259, 0.020021
0.448852, 0.618091, 0.0213699
0.453759, 0.618093, 0.0213599
0.458799, 0.618275, 0.0198917
0.463825, 0.618433, 0.0186162
0.468924, 0.618686, 0.0165844
0.474146, 0.619092, 0.0133133
0.479466, 0.619617, 0.00907898
0.484825, 0.620182, 0.00453424
0.631979, 0.624544, -0.0306072
0.634573, 0.622227, -0.0119429
0.63913, 0.621856, -0.00895214
0.643627, 0.621433, -0.00554371
0.647522, 0.62044, 0.00245523
0.651898, 0.619918, 0.0066576
0.656296, 0.619425, 0.0106277
0.660942, 0.619172, 0.0126634
0.665659, 0.618989, 0.014142
0.670839, 0.619236, 0.0121527
0.675972, 0.619436, 0.0105424
0.680943, 0.619486, 0.0101361
0.686105, 0.619708, 0.00834894
0.692318, 0.620869, -0.00100374
0.697615, 0.621198, -0.00365496
0.70308, 0.621671, -0.00746012
-0.39058, 0.625582, 0.0137959
-0.385267, 0.624934, 0.0189614
-0.380228, 0.624719, 0.0206804
-0.375236, 0.624576, 0.0218201
-0.370248, 0.624436, 0.0229349
-0.365294, 0.624351, 0.0236092
-0.36043, 0.624419, 0.0230708
-0.355482, 0.62434, 0.023695
-0.350629, 0.62443, 0.0229783
-0.345864, 0.624681, 0.0209789
-0.34114, 0.625014, 0.0183215
-0.33685, 0.626164, 0.0091629
-0.253297, 0.626276, 0.00826645
-0.24789, 0.625043, 0.0180922
-0.242682, 0.624274, 0.0242276
-0.237639, 0.623905, 0.0271664
-0.232588, 0.623499, 0.0303979
-0.227541, 0.623087, 0.0336843
-0.222373, 0.622317, 0.0398197
-0.217331, 0.621875, 0.0433445
-0.212325, 0.621518, 0.0461893
-0.207387, 0.621348, 0.0475426
-0.202459, 0.621198, 0.0487418
-0.197556, 0.621124, 0.0493312
-0.192655, 0.621049, 0.0499258
-0.187758, 0.620984, 0.0504451
-0.18287, 0.620944, 0.0507612
-0.177975, 0.62088, 0.0512714
-0.173081, 0.620815, 0.0517955
-0.168187, 0.620748, 0.0523243
-0.163295, 0.620683, 0.0528479
-0.158403, 0.620616, 0.0533767
-0.153514, 0.620552, 0.0538893
-0.148625, 0.620488, 0.0543971
-0.143739, 0.620431, 0.0548511
-0.138858, 0.620396, 0.0551305
-0.133981, 0.620373, 0.0553155
-0.129104, 0.620349, 0.0555053
-0.124241, 0.620391, 0.0551744
-0.119392, 0.620514, 0.054193
-0.114542, 0.620638, 0.0532074
-0.109712, 0.620888, 0.0512137
-0.104873, 0.621106, 0.0494728
-0.100024, 0.621289, 0.0480146
-0.0951688, 0.621444, 0.0467792
-0.0902428, 0.621131, 0.0492787
-0.0853371, 0.620928, 0.0508895
-0.0804474, 0.620826, 0.051702
-0.0755466, 0.620619, 0.0533528
-0.0706478, 0.620402, 0.0550876
-0.0657411, 0.620076, 0.0576801
-0.0608489, 0.619846, 0.0595136
-0.0560005, 0.620063, 0.0577903
-0.0511542, 0.620345, 0.0555358
-0.046297, 0.620542, 0.0539703
-0.0414353, 0.620717, 0.0525784
-0.0365708, 0.620892, 0.0511818
-0.0317054, 0.621103, 0.0495014
-0.026837, 0.621316, 0.0477962
-0.021963, 0.62147, 0.0465717
-0.0170866, 0.621628, 0.0453129
-0.0122079, 0.621788, 0.0440383
-0.00732656, 0.621946, 0.042779
-0.00244277, 0.622106, 0.0415044
0.0024434, 0.622265, 0.0402336
0.00733219, 0.622424, 0.0389686
0.0122203, 0.622423, 0.0389781
0.0171048, 0.622288, 0.0400538
0.0219871, 0.622154, 0.0411248
0.0268674, 0.62202, 0.0421901
0.0317454, 0.621886, 0.0432606
0.0366229, 0.621777, 0.044127
0.0414978, 0.621654, 0.0451074
0.0463663, 0.621472, 0.0465589
0.0512321, 0.62129, 0.0480051
0.0560949, 0.621108, 0.0494561
0.0609515, 0.620892, 0.0511799
0.0657961, 0.620596, 0.0535431
0.0706362, 0.6203, 0.0559011
0.0754786, 0.620061, 0.0578074
0.0803211, 0.619852, 0.0594702
0.0851604, 0.619643, 0.0611377
0.090004, 0.619486, 0.0623837
0.0948478, 0.619348, 0.0634851
0.0996868, 0.619193, 0.0647202
0.104524, 0.619043, 0.0659204
0.10937, 0.618951, 0.066649
0.114213, 0.618858, 0.0673919
0.119055, 0.618764, 0.0681396
0.123896, 0.61867, 0.0688925
0.128735, 0.618576, 0.0696397
0.133573, 0.618484, 0.0703721
0.13841, 0.618393, 0.0710993
0.143245, 0.618301, 0.0718307
0.148079, 0.61821, 0.072557
0.152912, 0.618122, 0.0732579
0.15774, 0.618016, 0.0741034
0.162573, 0.61794, 0.0747046
0.167408, 0.617874, 0.0752311
0.172243, 0.617809, 0.0757527
0.177071, 0.617726, 0.0764179
0.181886, 0.617603, 0.0773945
0.186713, 0.617526, 0.0780096
0.191538, 0.617448, 0.078629
0.196339, 0.617295, 0.0798483
0.20113, 0.617123, 0.0812201
0.205938, 0.617007, 0.0821414
0.210648, 0.616609, 0.0853171
0.215388, 0.616315, 0.0876641
0.220169, 0.61615, 0.0889754
0.224947, 0.615985, 0.0902915
0.229723, 0.615819, 0.0916114
0.234584, 0.615883, 0.0911026
0.239496, 0.616078, 0.0895481
0.244412, 0.616273, 0.0879984
0.24933, 0.616466, 0.0864534
0.254252, 0.616661, 0.0849037
0.259176, 0.616856, 0.0833488
0.264129, 0.617108, 0.0813427
0.269133, 0.617471, 0.0784492
0.274121, 0.617782, 0.0759678
0.279114, 0.618096, 0.0734615
0.284157, 0.618506, 0.0701971
0.289211, 0.618927, 0.0668392
0.294288, 0.619383, 0.0632086
0.299436, 0.619969, 0.0585332
0.304776, 0.620931, 0.0508723
0.310096, 0.62182, 0.0437813
0.31575, 0.623342, 0.0316558
0.43545, 0.626522, 0.00630188
0.439724, 0.625604, 0.0136228
0.444219, 0.625015, 0.0183182
0.44884, 0.624615, 0.0215054
0.453705, 0.624559, 0.0219498
0.458556, 0.624486, 0.0225368
0.463563, 0.624625, 0.0214291
0.468569, 0.624758, 0.0203652
0.473571, 0.624885, 0.0193563
0.478595, 0.625037, 0.0181446
0.483809, 0.625431, 0.0150018
0.489111, 0.625931, 0.0110159
0.494543, 0.626585, 0.00580025
0.49997, 0.627221, 0.000738144
0.615388, 0.629393, -0.0165782
0.619783, 0.628837, -0.0121465
0.624499, 0.628613, -0.0103602
0.629139, 0.628317, -0.00799894
0.633207, 0.627458, -0.00115395
0.637649, 0.62698, 0.00265265
0.642413, 0.626825, 0.0038929
0.646867, 0.626371, 0.00751019
0.651584, 0.626176, 0.0090642
0.656247, 0.625933, 0.0109968
0.660953, 0.625735, 0.012579
0.665897, 0.625763, 0.0123558
0.671124, 0.626054, 0.0100327
0.676106, 0.626115, 0.00955296
0.681073, 0.626161, 0.00918722
0.686337, 0.626477, 0.00666237
0.692639, 0.627729, -0.00331783
0.69789, 0.628019, -0.00562382
-0.390367, 0.631788, 0.0165129
-0.385086, 0.631181, 0.0213027
-0.380164, 0.631154, 0.0215168
-0.375194, 0.631045, 0.0223799
-0.370228, 0.630941, 0.0231972
-0.365266, 0.630839, 0.0240006
-0.360312, 0.630749, 0.0247097
-0.355463, 0.630844, 0.0239582
-0.350542, 0.630812, 0.0242114
-0.345707, 0.630937, 0.0232325
-0.340977, 0.631257, 0.0207033
-0.336438, 0.631947, 0.0152593
-0.331981, 0.632813, 0.00843334
-0.253264, 0.632751, 0.00891972
-0.247855, 0.631499, 0.0187936
-0.242695, 0.630843, 0.0239663
-0.237638, 0.630436, 0.0271826
-0.232586, 0.630024, 0.0304337
-0.227523, 0.629562, 0.0340753
-0.222339, 0.62874, 0.0405583
-0.217296, 0.628287, 0.0441313
-0.212315, 0.627998, 0.046411
-0.207378, 0.627825, 0.0477738
-0.202465, 0.627723, 0.0485764
-0.197568, 0.627664, 0.049047
-0.192673, 0.627611, 0.0494633
-0.187783, 0.627568, 0.0498042
-0.182902, 0.627555, 0.049902
-0.178011, 0.627507, 0.0502825
-0.173117, 0.627447, 0.0507569
-0.168224, 0.627386, 0.0512357
-0.163332, 0.627324, 0.0517297
-0.15844, 0.627259, 0.052238
-0.153549, 0.627194, 0.0527515
-0.14866, 0.627135, 0.0532203
-0.143773, 0.627077, 0.0536733
-0.138888, 0.627028, 0.0540619
-0.13401, 0.627005, 0.0542469
-0.129141, 0.627025, 0.0540895
-0.12428, 0.627088, 0.0535903
-0.119429, 0.627206, 0.0526586
-0.114592, 0.62741, 0.0510478
-0.109763, 0.627684, 0.0488858
-0.104926, 0.627931, 0.046937
-0.100094, 0.628231, 0.0445766
-0.0952363, 0.628397, 0.0432615
-0.0903822, 0.628604, 0.0416346
-0.0855104, 0.628705, 0.0408349
-0.0805769, 0.628337, 0.0437398
-0.0756847, 0.628264, 0.0443091
-0.0707957, 0.628211, 0.044734
-0.0659003, 0.628087, 0.0457096
-0.0610064, 0.627959, 0.0467191
-0.0561116, 0.627799, 0.0479817
-0.0512201, 0.627649, 0.04916
-0.0463546, 0.62782, 0.0478125
-0.0414955, 0.628128, 0.0453897
-0.036628, 0.628374, 0.043447
-0.0317567, 0.628621, 0.0414987
-0.0268783, 0.628788, 0.0401812
-0.0219965, 0.628937, 0.0390067
-0.0171125, 0.629089, 0.0378075
-0.0122264, 0.62925, 0.0365329
-0.00733874, 0.629503, 0.0345392
-0.00244723, 0.629766, 0.0324612
0.00244813, 0.629998, 0.0306358
0.00734633, 0.630154, 0.0294003
0.012247, 0.630312, 0.0281601
0.0171475, 0.630374, 0.0276685
0.0220412, 0.630215, 0.0289273
0.0269325, 0.630055, 0.0301814
0.0318214, 0.629901, 0.0313997
0.036708, 0.629746, 0.0326238
0.0415923, 0.629593, 0.0338326
0.0464715, 0.629404, 0.0353231
0.0513421, 0.629144, 0.0373745
0.0562085, 0.628883, 0.0394311
0.0610711, 0.628624, 0.0414715
0.0659308, 0.628377, 0.0434179
0.0707938, 0.628193, 0.0448728
0.0756502, 0.627978, 0.0465708
0.0804985, 0.627725, 0.0485601
0.0853485, 0.627514, 0.0502281
0.0901951, 0.627302, 0.0519004
0.0950414, 0.627111, 0.0534086
0.0998858, 0.626925, 0.054872
0.104727, 0.626739, 0.0563397
0.109568, 0.626569, 0.0576835
0.114408, 0.626402, 0.0590019
0.119243, 0.626229, 0.0603647
0.124086, 0.626106, 0.0613356
0.128932, 0.62601, 0.0620928
0.133777, 0.625916, 0.0628352
0.138622, 0.625827, 0.0635324
0.143467, 0.625743, 0.0641947
0.14831, 0.625659, 0.0648618
0.153153, 0.625575, 0.0655236
0.15799, 0.625478, 0.0662889
0.162822, 0.625365, 0.0671778
0.167652, 0.625252, 0.0680714
0.172482, 0.625147, 0.0689011
0.177317, 0.625063, 0.0695658
0.182153, 0.624986, 0.0701661
0.18698, 0.624887, 0.0709496
0.191803, 0.624776, 0.0718269
0.196624, 0.624664, 0.0727086
0.201437, 0.624535, 0.0737247
0.206249, 0.624407, 0.0747347
0.211059, 0.624281, 0.0757294
0.215857, 0.624125, 0.0769567
0.220653, 0.623972, 0.0781698
0.225447, 0.623818, 0.0793858
0.230239, 0.623664, 0.0805979
0.23506, 0.623596, 0.0811296
0.239979, 0.623783, 0.0796552
0.244901, 0.623971, 0.078176
0.249825, 0.624159, 0.0766907
0.254763, 0.624372, 0.0750127
0.259715, 0.624609, 0.0731411
0.264658, 0.624819, 0.0714831
0.269685, 0.625215, 0.0683632
0.274726, 0.625629, 0.0650997
0.279778, 0.626053, 0.0617528
0.284846, 0.626498, 0.0582418
0.289962, 0.627033, 0.0540228
0.295189, 0.627784, 0.0480962
0.300427, 0.628536, 0.0421653
0.306194, 0.630351, 0.0278521
0.440296, 0.632977, 0.00713634
0.444521, 0.63199, 0.014924
0.449106, 0.631529, 0.0185561
0.453773, 0.631194, 0.021203
0.458583, 0.631063, 0.0222349
0.463432, 0.630987, 0.0228362
0.468364, 0.631024, 0.0225434
0.473361, 0.631148, 0.021564
0.47836, 0.631272, 0.0205894
0.48337, 0.631407, 0.0195203
0.488421, 0.631593, 0.0180521
0.493651, 0.632004, 0.014811
0.498699, 0.632176, 0.0134516
0.504248, 0.632974, 0.00716066
0.509694, 0.633629, 0.00199175
0.515136, 0.634266, -0.00303411
0.59063, 0.635936, -0.0162015
0.595198, 0.635537, -0.0130525
0.599955, 0.635343, -0.0115261
0.604688, 0.635128, -0.00982666
0.609396, 0.63489, -0.00795603
0.613999, 0.634548, -0.00525427
0.618282, 0.633883, -7.62939e-06
0.622837, 0.633504, 0.00297785
0.62774, 0.633483, 0.00314188
0.63243, 0.63325, 0.00498343
0.636934, 0.632835, 0.00825739
0.641707, 0.632692, 0.00938845
0.646474, 0.632545, 0.0105448
0.651299, 0.632457, 0.0112419
0.65611, 0.632355, 0.0120425
0.661005, 0.632337, 0.0121884
0.666184, 0.632588, 0.0102048
0.671277, 0.632754, 0.00889444
0.676241, 0.632797, 0.00855303
0.681337, 0.632962, 0.00725317
0.687646, 0.634244, -0.00285912
0.692927, 0.634566, -0.00539637
0.698237, 0.634911, -0.00811529
-0.3953, 0.638373, 0.0162244
-0.390593, 0.638706, 0.0136209
-0.384909, 0.637429, 0.0235915
-0.380096, 0.63758, 0.0224123
-0.375176, 0.637554, 0.0226111
-0.37022, 0.637465, 0.0233102
-0.365265, 0.637375, 0.0240145
-0.360311, 0.637285, 0.0247135
-0.355361, 0.637199, 0.0253873
-0.350501, 0.637274, 0.0247993
-0.34566, 0.637388, 0.02391
-0.340814, 0.637494, 0.0230837
-0.336105, 0.637864, 0.0201936
-0.331549, 0.638539, 0.0149236
-0.326931, 0.639114, 0.0104389
-0.253179, 0.639093, 0.010602
-0.247812, 0.637931, 0.0196714
-0.242693, 0.637375, 0.0240121
-0.237641, 0.636977, 0.0271187
-0.232586, 0.636552, 0.0304379
-0.227492, 0.636, 0.0347433
-0.222331, 0.635231, 0.0407481
-0.217284, 0.634762, 0.0444112
-0.212321, 0.634523, 0.0462742
-0.20738, 0.63434, 0.0477066
-0.202486, 0.634293, 0.0480728
-0.197591, 0.634242, 0.0484734
-0.192696, 0.63419, 0.0488801
-0.18781, 0.634163, 0.0490913
-0.182928, 0.63415, 0.04919
-0.178045, 0.634133, 0.0493231
-0.17315, 0.634072, 0.0497966
-0.168257, 0.634011, 0.0502758
-0.163364, 0.633951, 0.0507398
-0.158473, 0.633894, 0.0511889
-0.153584, 0.633838, 0.0516224
-0.148696, 0.633785, 0.0520411
-0.143808, 0.633728, 0.052485
-0.13892, 0.633669, 0.0529428
-0.134044, 0.633663, 0.052989
-0.129183, 0.633728, 0.0524845
-0.124321, 0.633792, 0.0519848
-0.11947, 0.633923, 0.0509644
-0.114641, 0.634184, 0.0489278
-0.109802, 0.634412, 0.0471425
-0.10497, 0.634704, 0.044867
-0.100147, 0.63508, 0.0419316
-0.0953075, 0.635384, 0.0395555
-0.0904685, 0.635725, 0.0368972
-0.0856108, 0.635965, 0.0350165
-0.0807497, 0.636209, 0.0331111
-0.0758899, 0.636496, 0.0308728
-0.0709745, 0.636324, 0.0322204
-0.0660846, 0.63637, 0.0318561
-0.0611838, 0.636311, 0.0323205
-0.0562795, 0.636202, 0.0331664
-0.0513768, 0.636094, 0.0340161
-0.0464757, 0.635983, 0.0348816
-0.0415753, 0.635857, 0.0358605
-0.0366869, 0.635907, 0.0354757
-0.0318132, 0.636265, 0.0326753
-0.0269272, 0.63646, 0.0311584
-0.0220392, 0.636688, 0.0293794
-0.017148, 0.636926, 0.0275149
-0.0122531, 0.637163, 0.0256662
-0.00735491, 0.637429, 0.0235939
-0.00245222, 0.637589, 0.0223389
0.00245302, 0.637799, 0.0207024
0.00736213, 0.638054, 0.0187135
0.0122751, 0.638308, 0.0167294
0.0171921, 0.638563, 0.0147395
0.022113, 0.638818, 0.0127454
0.027023, 0.638725, 0.0134735
0.0319299, 0.638599, 0.0144544
0.0368349, 0.638473, 0.01544
0.0417292, 0.638211, 0.0174813
0.0466171, 0.637918, 0.0197754
0.0515003, 0.637623, 0.0220747
0.0563723, 0.637252, 0.0249739
0.0612519, 0.63702, 0.0267859
0.066128, 0.636788, 0.0285931
0.0710006, 0.636557, 0.030396
0.0758696, 0.636326, 0.0322022
0.0807352, 0.636095, 0.0340042
0.0855988, 0.635876, 0.0357108
0.0904635, 0.635689, 0.0371747
0.0953207, 0.635472, 0.0388713
0.10016, 0.635158, 0.041317
0.104994, 0.634846, 0.0437565
0.109836, 0.634607, 0.0456257
0.114685, 0.634429, 0.0470133
0.119535, 0.634269, 0.0482574
0.124383, 0.634109, 0.0495067
0.129227, 0.633943, 0.0508089
0.134066, 0.633767, 0.052176
0.13891, 0.633626, 0.0532799
0.143757, 0.633506, 0.0542202
0.148593, 0.633349, 0.0554419
0.153428, 0.633195, 0.0566487
0.15826, 0.633039, 0.0578609
0.163096, 0.63291, 0.0588694
0.167938, 0.632811, 0.0596437
0.172783, 0.632725, 0.0603147
0.177626, 0.63264, 0.0609798
0.182469, 0.632558, 0.0616202
0.187313, 0.632487, 0.0621758
0.192157, 0.632415, 0.0627365
0.196997, 0.632336, 0.0633507
0.201824, 0.632219, 0.0642667
0.206646, 0.632093, 0.0652475
0.21148, 0.632009, 0.065906
0.216312, 0.631924, 0.0665693
0.221186, 0.631959, 0.0662942
0.226066, 0.632013, 0.0658765
0.230947, 0.632065, 0.065464
0.235809, 0.632066, 0.0654616
0.240617, 0.631923, 0.0665741
0.245571, 0.632163, 0.0646987
0.250518, 0.632376, 0.0630364
0.255466, 0.632584, 0.061419
0.260433, 0.632827, 0.0595183
0.26542, 0.633112, 0.0572963
0.270411, 0.633396, 0.055079
0.275472, 0.633829, 0.0516987
0.280586, 0.634368, 0.0474906
0.285892, 0.635316, 0.0400887
0.29142, 0.636717, 0.0291491
0.440677, 0.640089, 0.00282431
0.445221, 0.639543, 0.00708389
0.449483, 0.63861, 0.0143709
0.454036, 0.638105, 0.0183129
0.458711, 0.637781, 0.0208454
0.463503, 0.637624, 0.0220695
0.468392, 0.637602, 0.0222402
0.473273, 0.637569, 0.0224953
0.478184, 0.637579, 0.022419
0.483211, 0.63774, 0.021163
0.488232, 0.637891, 0.01998
0.493234, 0.638014, 0.0190201
0.498277, 0.638187, 0.0176702
0.50348, 0.638559, 0.0147653
0.508562, 0.638774, 0.0130897
0.513831, 0.639216, 0.00964308
0.519347, 0.639953, 0.00388241
0.524702, 0.640482, -0.000243664
0.530032, 0.640969, -0.00404978
0.535171, 0.641219, -0.0059948
0.54023, 0.641369, -0.00716591
0.545284, 0.64151, -0.00827312
0.550213, 0.641504, -0.00822163
0.55513, 0.641484, -0.00806713
0.560049, 0.641466, -0.00792789
0.564968, 0.641449, -0.00779247
0.569886, 0.64143, -0.0076437
0.574747, 0.641348, -0.0070076
0.579584, 0.641242, -0.00617886
0.584406, 0.64112, -0.005229
0.589176, 0.640945, -0.00385904
0.593946, 0.640772, -0.0025053
0.598478, 0.640347, 0.000813007
0.603079, 0.640002, 0.00350475
0.607954, 0.639952, 0.00389624
0.61278, 0.63985, 0.00468588
0.617482, 0.639623, 0.00646496
0.622164, 0.639378, 0.00837612
0.627011, 0.639305, 0.00894213
0.631839, 0.639214, 0.00965214
0.636653, 0.639112, 0.0104542
0.641499, 0.639041, 0.0110044
0.64635, 0.638978, 0.0115004
0.651289, 0.639, 0.0113225
0.656377, 0.639169, 0.0100079
0.661495, 0.639363, 0.00849199
0.666476, 0.639423, 0.00802326
0.671419, 0.639447, 0.00783491
0.676374, 0.639481, 0.00757122
0.682637, 0.640743, -0.00227976
0.687961, 0.641111, -0.00515604
0.693151, 0.641349, -0.00701475
-0.395117, 0.644621, 0.0185318
-0.390455, 0.645029, 0.0153852
-0.384845, 0.64386, 0.024415
-0.380077, 0.644087, 0.0226617
-0.375185, 0.644108, 0.0224957
-0.37023, 0.64402, 0.0231748
-0.365275, 0.643931, 0.0238686
-0.360319, 0.643835, 0.0246072
-0.355368, 0.643747, 0.025291
-0.350412, 0.643647, 0.0260587
-0.345537, 0.643695, 0.0256934
-0.340697, 0.64381, 0.0247984
-0.335897, 0.644008, 0.0232749
-0.331225, 0.644458, 0.0197964
-0.326524, 0.644865, 0.0166488
-0.321857, 0.645351, 0.0128918
-0.317381, 0.646243, 0.00600147
-0.253049, 0.645315, 0.0131726
-0.247775, 0.644378, 0.0204096
-0.242687, 0.643898, 0.0241241
-0.237646, 0.643521, 0.0270324
-0.232589, 0.643089, 0.0303717
-0.227473, 0.642468, 0.035171
-0.222319, 0.641712, 0.0410175
-0.217279, 0.641258, 0.0445204
-0.212329, 0.641053, 0.0461059
-0.207399, 0.640904, 0.0472603
-0.202504, 0.640856, 0.0476265
-0.19761, 0.640808, 0.0479984
-0.192723, 0.640784, 0.0481858
-0.187837, 0.640762, 0.0483584
-0.182954, 0.640746, 0.0484762
-0.178072, 0.640733, 0.0485787
-0.173184, 0.6407, 0.0488353
-0.16829, 0.640639, 0.049304
-0.163397, 0.64058, 0.0497584
-0.158507, 0.64053, 0.050148
-0.153617, 0.640477, 0.0505614
-0.148727, 0.640421, 0.0509906
-0.143839, 0.640366, 0.051414
-0.138947, 0.640292, 0.0519905
-0.134084, 0.640351, 0.0515313
-0.129222, 0.64042, 0.0509973
-0.124359, 0.640489, 0.050468
-0.119516, 0.640672, 0.0490508
-0.114679, 0.640898, 0.0473022
-0.109837, 0.641125, 0.045547
-0.105016, 0.641496, 0.0426869
-0.1002, 0.641929, 0.0393353
-0.0953759, 0.642361, 0.0359983
-0.0905493, 0.642818, 0.0324674
-0.0857012, 0.643166, 0.0297737
-0.080852, 0.643549, 0.0268183
-0.0759953, 0.643917, 0.0239754
-0.0711258, 0.64422, 0.0216331
-0.0662357, 0.644367, 0.0204954
-0.0613582, 0.644669, 0.0181627
-0.0564943, 0.645181, 0.0142088
-0.0516048, 0.64547, 0.0119743
-0.0466981, 0.645581, 0.0111136
-0.0417875, 0.645659, 0.0105152
-0.0368768, 0.645755, 0.00977325
-0.0319674, 0.645907, 0.00859928
-0.0270557, 0.646055, 0.0074501
-0.0221492, 0.646429, 0.00456047
0.0860392, 0.645703, 0.0101705
0.0909005, 0.645311, 0.0132012
0.0957504, 0.644884, 0.0165043
0.100597, 0.644474, 0.0196729
0.105437, 0.644064, 0.0228367
0.110271, 0.643655, 0.0259953
0.115122, 0.643375, 0.0281668
0.119972, 0.643113, 0.0301838
0.12481, 0.642812, 0.0325131
0.129644, 0.642511, 0.0348372
0.134477, 0.642228, 0.0370274
0.139305, 0.641945, 0.0392122
0.144134, 0.64168, 0.0412626
0.148962, 0.641432, 0.043179
0.153813, 0.641295, 0.0442371
0.158666, 0.641173, 0.0451818
0.16351, 0.641026, 0.046319
0.168366, 0.640929, 0.0470643
0.173221, 0.640835, 0.0477943
0.178072, 0.640736, 0.0485592
0.182909, 0.640587, 0.0497055
0.187749, 0.64046, 0.0506873
0.192596, 0.640361, 0.0514565
0.197442, 0.640265, 0.0521998
0.202294, 0.640192, 0.0527592
0.207147, 0.640124, 0.0532846
0.212003, 0.640071, 0.0536952
0.216851, 0.639994, 0.0542893
0.221694, 0.639908, 0.0549574
0.226583, 0.639955, 0.0545893
0.231507, 0.640097, 0.0534935
0.236434, 0.64024, 0.0523925
0.241357, 0.640369, 0.0513949
0.246269, 0.640462, 0.0506701
0.251208, 0.640621, 0.0494442
0.256207, 0.640924, 0.0471048
0.261211, 0.641227, 0.0447598
0.266359, 0.641867, 0.0398149
0.271572, 0.642638, 0.0338559
0.445646, 0.64672, 0.00231695
0.450154, 0.646123, 0.00692558
0.454472, 0.645268, 0.0135345
0.459063, 0.644816, 0.017025
0.46382, 0.644603, 0.0186739
0.468572, 0.644389, 0.0203257
0.473354, 0.644219, 0.0216374
0.478251, 0.644208, 0.021729
0.483151, 0.644202, 0.0217757
0.488083, 0.644237, 0.0215015
0.493102, 0.644385, 0.0203543
0.49811, 0.644517, 0.0193396
0.503127, 0.644656, 0.0182605
0.508165, 0.644821, 0.0169897
0.513218, 0.645001, 0.015595
0.518488, 0.645448, 0.0121436
0.52357, 0.645654, 0.0105519
0.528678, 0.645889, 0.00873852
0.533816, 0.646155, 0.00668287
0.538856, 0.646299, 0.00557041
0.543952, 0.646507, 0.0039587
0.548921, 0.646562, 0.00353527
0.553713, 0.646408, 0.00472403
0.55862, 0.646391, 0.00485229
0.56352, 0.646367, 0.00504446
0.568413, 0.646334, 0.00530005
0.573297, 0.646292, 0.00561953
0.578233, 0.646309, 0.0054903
0.583168, 0.646324, 0.00537586
0.588024, 0.646253, 0.00592566
0.592859, 0.646159, 0.00664806
0.597601, 0.645967, 0.00813293
0.602434, 0.645875, 0.00884438
0.6073, 0.645819, 0.00927448
0.612157, 0.645755, 0.00976753
0.617019, 0.645699, 0.0102072
0.621915, 0.645677, 0.0103755
0.62681, 0.645656, 0.0105376
0.631707, 0.645635, 0.0106955
0.636576, 0.645588, 0.0110641
0.641613, 0.64571, 0.0101194
0.646688, 0.645868, 0.00889397
0.651769, 0.64603, 0.00764418
0.65675, 0.646091, 0.00717592
0.661694, 0.646115, 0.00698805
0.666637, 0.646138, 0.006814
0.671607, 0.646186, 0.00643873
0.676867, 0.64651, 0.00393534
0.683052, 0.647707, -0.00531483
0.688187, 0.647899, -0.00679493
0.693467, 0.648223, -0.00930166
-0.39502, 0.651005, 0.0197587
-0.390193, 0.65114, 0.0187283
-0.384903, 0.650494, 0.0236735
-0.380108, 0.65068, 0.0222478
-0.375215, 0.650699, 0.0221009
-0.370249, 0.650592, 0.0229182
-0.365317, 0.650542, 0.0233059
-0.360293, 0.650325, 0.0249639
-0.355346, 0.650242, 0.025598
-0.350422, 0.650201, 0.0259109
-0.345474, 0.650112, 0.0265942
-0.340548, 0.650063, 0.0269661
-0.33576, 0.650279, 0.0253139
-0.331002, 0.650562, 0.0231524
-0.32626, 0.650885, 0.0206785
-0.321527, 0.651236, 0.0179911
-0.316814, 0.651639, 0.0149121
-0.31223, 0.652323, 0.00968027
-0.252959, 0.651635, 0.0149393
-0.247746, 0.650844, 0.0209966
-0.242682, 0.65042, 0.0242352
-0.237649, 0.650065, 0.0269547
-0.232602, 0.649654, 0.0300956
-0.227468, 0.648978, 0.0352712
-0.222326, 0.648247, 0.0408587
-0.217291, 0.647804, 0.0442514
-0.212334, 0.647577, 0.0459857
-0.207417, 0.647467, 0.046823
-0.202531, 0.647449, 0.0469613
-0.197645, 0.647429, 0.0471144
-0.192759, 0.647411, 0.0472531
-0.187874, 0.647391, 0.0474052
-0.182987, 0.647367, 0.0475926
-0.178101, 0.647343, 0.0477748
-0.173215, 0.64732, 0.0479517
-0.168324, 0.647275, 0.0482922
-0.163432, 0.647224, 0.0486865
-0.158541, 0.647173, 0.0490756
-0.153649, 0.647115, 0.0495195
-0.148753, 0.647036, 0.0501261
-0.143858, 0.646956, 0.0507374
-0.138981, 0.646953, 0.0507598
-0.134119, 0.647022, 0.0502305
-0.129255, 0.64709, 0.0497069
-0.124405, 0.647228, 0.0486522
-0.119563, 0.647428, 0.0471268
-0.114723, 0.647656, 0.0453777
-0.109884, 0.647908, 0.0434551
-0.105068, 0.648328, 0.0402379
-0.100266, 0.648876, 0.0360441
-0.0954643, 0.649484, 0.0313993
-0.0906375, 0.649976, 0.0276308
-0.0858001, 0.650446, 0.0240359
-0.0809569, 0.650926, 0.0203662
-0.0760991, 0.651343, 0.0171771
-0.071242, 0.651824, 0.0134969
-0.0663513, 0.652045, 0.0118036
-0.0614463, 0.652149, 0.0110087
-0.0565379, 0.652234, 0.0103564
0.159743, 0.652079, 0.0115442
0.164453, 0.651266, 0.0177665
0.169055, 0.650086, 0.0267873
0.1739, 0.64988, 0.0283704
0.178753, 0.649713, 0.0296407
0.183604, 0.649549, 0.0308962
0.188452, 0.649383, 0.032166
0.193304, 0.64924, 0.0332623
0.198184, 0.649195, 0.0336103
0.203064, 0.649151, 0.0339427
0.207919, 0.649032, 0.0348549
0.212766, 0.648895, 0.0359006
0.217635, 0.64883, 0.036396
0.222511, 0.648786, 0.0367379
0.227405, 0.648798, 0.0366478
0.232322, 0.648872, 0.036078
0.237281, 0.649057, 0.0346608
0.242297, 0.64939, 0.0321193
0.247387, 0.6499, 0.0282159
0.455221, 0.652893, 0.00531912
0.460064, 0.652782, 0.0061636
0.464315, 0.651843, 0.0133524
0.468924, 0.651419, 0.0165944
0.473689, 0.65122, 0.0181131
0.478455, 0.651025, 0.0196066
0.483267, 0.650898, 0.0205817
0.488165, 0.650887, 0.0206633
0.493064, 0.650877, 0.0207386
0.497996, 0.65091, 0.020484
0.503025, 0.65107, 0.0192671
0.508042, 0.65121, 0.0181928
0.513048, 0.651333, 0.0172524
0.51805, 0.65145, 0.0163555
0.523089, 0.65161, 0.0151286
0.52813, 0.65177, 0.0139065
0.533142, 0.651891, 0.0129848
0.538127, 0.651977, 0.0123248
0.543172, 0.652134, 0.011127
0.548183, 0.652247, 0.0102596
0.553036, 0.652173, 0.0108261
0.557946, 0.652166, 0.0108747
0.562874, 0.65218, 0.0107703
0.567801, 0.652193, 0.0106707
0.57273, 0.652207, 0.0105658
0.577638, 0.652198, 0.0106335
0.582544, 0.652187, 0.010715
0.587451, 0.652177, 0.0107918
0.592386, 0.652198, 0.0106368
0.597323, 0.652221, 0.0104566
0.602253, 0.652236, 0.0103407
0.607163, 0.652229, 0.010396
0.612062, 0.652211, 0.0105352
0.616962, 0.652193, 0.0106688
0.621936, 0.652254, 0.0102072
0.626954, 0.65236, 0.0093956
0.631978, 0.65247, 0.00854921
0.637005, 0.652582, 0.00769854
0.642066, 0.652726, 0.00659704
0.647011, 0.652751, 0.00640488
0.651955, 0.652775, 0.006217
0.656901, 0.652801, 0.00602436
0.661847, 0.652825, 0.00583649
0.666926, 0.65298, 0.00465059
0.673087, 0.654184, -0.00456047
0.678267, 0.654425, -0.00640392
0.683376, 0.654594, -0.00769281
0.688612, 0.654881, -0.00988865
-0.39003, 0.657409, 0.0208139
-0.385077, 0.657329, 0.0214186
-0.380147, 0.657286, 0.0217423
-0.375201, 0.657215, 0.0222783
-0.370275, 0.657176, 0.022572
-0.365334, 0.657111, 0.023068
-0.360348, 0.65696, 0.0242119
-0.355301, 0.656695, 0.0262203
-0.350363, 0.656625, 0.0267506
-0.34545, 0.6566, 0.0269394
-0.340553, 0.656606, 0.0268955
-0.335641, 0.656582, 0.0270743
-0.330782, 0.656664, 0.0264564
-0.32605, 0.657002, 0.0238938
-0.32128, 0.657274, 0.0218306
-0.31652, 0.657576, 0.0195441
-0.311762, 0.657892, 0.0171533
-0.307082, 0.658383, 0.0134311
-0.302675, 0.659487, 0.00507164
-0.252928, 0.658104, 0.0155458
-0.24772, 0.657316, 0.021512
-0.242684, 0.656962, 0.0241961
-0.237655, 0.656614, 0.0268359
-0.232616, 0.656223, 0.0297976
-0.227464, 0.655488, 0.0353589
-0.222336, 0.654792, 0.0406284
-0.217312, 0.654376, 0.0437827
-0.212351, 0.654139, 0.0455761
-0.207452, 0.654085, 0.0459876
-0.20257, 0.65408, 0.0460267
-0.197682, 0.654059, 0.0461802
-0.192795, 0.65404, 0.0463285
-0.187909, 0.654021, 0.0464711
-0.183022, 0.653999, 0.0466385
-0.178135, 0.653975, 0.0468206
-0.173248, 0.65395, 0.0470076
-0.168357, 0.653907, 0.0473375
-0.163465, 0.653861, 0.0476823
-0.158567, 0.653785, 0.0482597
-0.153669, 0.653704, 0.048872
-0.148773, 0.653624, 0.0494785
-0.14388, 0.653556, 0.0499911
-0.139017, 0.653625, 0.0494676
-0.134154, 0.653695, 0.0489392
-0.129297, 0.653806, 0.0480976
-0.124455, 0.653997, 0.0466571
-0.119609, 0.654189, 0.0452013
-0.114768, 0.654421, 0.0434427
-0.109939, 0.654747, 0.0409746
-0.105121, 0.655174, 0.0377383
-0.100318, 0.655734, 0.0334959
-0.0955172, 0.656375, 0.0286436
-0.0907086, 0.657024, 0.023726
-0.0859006, 0.657753, 0.0182085
-0.0810919, 0.658564, 0.0120611
-0.0761893, 0.658669, 0.0112715
-0.0712814, 0.658738, 0.0107436
-0.0663934, 0.659017, 0.00863504
0.460606, 0.66012, 0.00028038
0.46513, 0.65955, 0.0045948
0.470031, 0.659519, 0.00482702
0.474173, 0.658437, 0.0130286
0.478826, 0.658079, 0.0157361
0.483596, 0.657886, 0.0171947
0.488368, 0.657701, 0.0185986
0.493217, 0.657622, 0.0191975
0.498139, 0.657641, 0.0190516
0.503062, 0.657661, 0.0188999
0.507986, 0.657682, 0.018744
0.512961, 0.657768, 0.0180888
0.517976, 0.657902, 0.0170736
0.522987, 0.658031, 0.0161033
0.527982, 0.658136, 0.0153046
0.532968, 0.658228, 0.0146103
0.537946, 0.658308, 0.013999
0.542923, 0.658386, 0.0134125
0.547899, 0.658461, 0.0128407
0.55284, 0.658493, 0.0125985
0.55778, 0.658525, 0.0123615
0.562722, 0.658557, 0.0121183
0.56767, 0.658596, 0.0118217
0.572621, 0.658637, 0.0115099
0.577562, 0.658666, 0.0112915
0.582498, 0.65869, 0.011107
0.587427, 0.658705, 0.0109963
0.592357, 0.65872, 0.0108805
0.597345, 0.6588, 0.0102773
0.602345, 0.658892, 0.00957966
0.607351, 0.658988, 0.00884819
0.612367, 0.659094, 0.00805235
0.617387, 0.659202, 0.00723171
0.622413, 0.659315, 0.00637674
0.627381, 0.659365, 0.00599861
0.632336, 0.659401, 0.00572395
0.637291, 0.659437, 0.00545359
0.642244, 0.659469, 0.00520754
0.647192, 0.659496, 0.00500584
0.652142, 0.659524, 0.00478888
0.657247, 0.659708, 0.00339651
0.663303, 0.660837, -0.00515604
0.668423, 0.661024, -0.00656652
0.673474, 0.661139, -0.00744104
0.678563, 0.66129, -0.00858688
0.683925, 0.661703, -0.0117116
-0.39044, 0.664648, 0.015583
-0.385265, 0.664194, 0.0189853
-0.380217, 0.663949, 0.0208211
-0.375222, 0.663791, 0.0220098
-0.370273, 0.663712, 0.0225997
-0.365319, 0.663622, 0.0232735
-0.360368, 0.663536, 0.0239224
-0.355349, 0.663318, 0.0255551
-0.350306, 0.663051, 0.0275588
-0.345342, 0.662927, 0.0284891
-0.340443, 0.662925, 0.0285048
-0.335564, 0.662964, 0.0282092
-0.330608, 0.662849, 0.0290751
-0.325738, 0.662905, 0.0286498
-0.320994, 0.663225, 0.0262508
-0.31624, 0.663533, 0.0239453
-0.311467, 0.663809, 0.021872
-0.306707, 0.664123, 0.019516
-0.301998, 0.66456, 0.0162439
-0.297472, 0.665419, 0.00980043
-0.258373, 0.66603, 0.00521946
-0.252897, 0.664571, 0.01616
-0.247721, 0.663858, 0.0215015
-0.242687, 0.663509, 0.0241251
-0.23766, 0.663162, 0.0267253
-0.232623, 0.662771, 0.0296569
-0.227455, 0.661983, 0.0355639
-0.222347, 0.661339, 0.0403967
-0.217332, 0.66095, 0.043314
-0.212371, 0.660711, 0.0451064
-0.207481, 0.660684, 0.0453095
-0.202597, 0.660679, 0.0453486
-0.197714, 0.660674, 0.0453839
-0.19283, 0.660666, 0.0454421
-0.187944, 0.660652, 0.0455456
-0.183057, 0.660633, 0.0456929
-0.178169, 0.66061, 0.0458651
-0.17328, 0.66058, 0.0460916
-0.168386, 0.660529, 0.0464716
-0.163489, 0.660462, 0.0469747
-0.158589, 0.66038, 0.0475912
-0.15369, 0.660298, 0.048203
-0.148791, 0.660208, 0.0488796
-0.143913, 0.660212, 0.0488472
-0.139051, 0.660291, 0.0482545
-0.134192, 0.660385, 0.0475473
-0.12935, 0.660578, 0.0461016
-0.124505, 0.66077, 0.044661
-0.119657, 0.660963, 0.0432153
-0.114823, 0.661248, 0.0410805
-0.109994, 0.661595, 0.0384741
-0.105177, 0.662043, 0.0351195
-0.100369, 0.662602, 0.0309277
-0.0955707, 0.663278, 0.0258574
-0.0907717, 0.664023, 0.020267
-0.085985, 0.66495, 0.0133133
-0.0811106, 0.66527, 0.0109134
-0.0762392, 0.665659, 0.00800228
0.470425, 0.666641, 0.000631809
0.47506, 0.666233, 0.0036912
0.480045, 0.666318, 0.00305367
0.484047, 0.665053, 0.0125446
0.488789, 0.664818, 0.0143037
0.493603, 0.664686, 0.0152974
0.498425, 0.664567, 0.0161877
0.50325, 0.664453, 0.0170431
0.508166, 0.664462, 0.0169749
0.513116, 0.664514, 0.0165868
0.518066, 0.664565, 0.0162029
0.523018, 0.664618, 0.0158043
0.527974, 0.664675, 0.0153804
0.532946, 0.66475, 0.0148144
0.537919, 0.664825, 0.0142522
0.542892, 0.664899, 0.0136948
0.547868, 0.664976, 0.013123
0.552852, 0.665061, 0.0124869
0.557836, 0.665143, 0.0118656
0.562821, 0.665227, 0.0112386
0.567808, 0.66531, 0.0106163
0.572796, 0.665393, 0.00999022
0.577791, 0.665484, 0.00930834
0.58279, 0.665577, 0.00861263
0.587789, 0.665669, 0.00792122
0.592791, 0.665762, 0.00722504
0.597793, 0.665854, 0.00653315
0.602788, 0.665937, 0.00591469
0.607754, 0.665987, 0.00553799
0.612708, 0.666022, 0.0052743
0.617662, 0.666058, 0.00500488
0.622617, 0.666094, 0.00474072
0.627571, 0.666128, 0.00448084
0.632527, 0.666164, 0.00421572
0.637484, 0.6662, 0.00394535
0.642476, 0.666272, 0.00340462
0.647591, 0.666469, 0.00192451
0.653598, 0.667574, -0.00636292
0.658686, 0.667732, -0.00754642
0.663731, 0.667843, -0.00838137
0.66877, 0.667947, -0.00916243
0.673924, 0.668164, -0.0107841
-0.385426, 0.671018, 0.0169072
-0.380326, 0.670683, 0.0193949
-0.375276, 0.670428, 0.0212841
-0.37027, 0.670246, 0.0226355
-0.365306, 0.670137, 0.0234475
-0.360344, 0.670027, 0.0242648
-0.355374, 0.6699, 0.0252051
-0.350333, 0.669634, 0.0271788
-0.345305, 0.669387, 0.0290189
-0.34034, 0.669254, 0.0300035
-0.335442, 0.669251, 0.0300241
-0.330564, 0.669289, 0.0297432
-0.325617, 0.669188, 0.0304947
-0.320739, 0.669226, 0.0302129
-0.315904, 0.669358, 0.0292339
-0.311176, 0.669722, 0.0265279
-0.306362, 0.669911, 0.0251222
-0.301591, 0.670201, 0.0229692
-0.2969, 0.670682, 0.0193963
-0.292287, 0.671359, 0.0143728
-0.287928, 0.672653, 0.00476265
-0.258374, 0.672593, 0.0052104
-0.252865, 0.671033, 0.0167913
-0.247723, 0.670405, 0.0214596
-0.242695, 0.670067, 0.0239644
-0.237665, 0.669709, 0.0266232
-0.232629, 0.669317, 0.0295348
-0.227419, 0.668399, 0.0363517
-0.222348, 0.667859, 0.0403619
-0.217352, 0.667524, 0.0428524
-0.212393, 0.667289, 0.0445952
-0.207509, 0.667284, 0.0446305
-0.202624, 0.667277, 0.0446892
-0.19774, 0.667269, 0.0447435
-0.192854, 0.667257, 0.0448322
-0.18797, 0.667253, 0.0448661
-0.183087, 0.667252, 0.0448747
-0.178204, 0.667247, 0.044908
-0.173309, 0.667199, 0.0452638
-0.16841, 0.667133, 0.045752
-0.163511, 0.66706, 0.0462952
-0.158609, 0.666973, 0.0469418
-0.153703, 0.666859, 0.047791
-0.148801, 0.666759, 0.0485358
-0.14394, 0.666839, 0.0479388
-0.139077, 0.666921, 0.047327
-0.134227, 0.667067, 0.0462432
-0.129385, 0.667267, 0.0447588
-0.12454, 0.66747, 0.0432491
-0.119697, 0.6677, 0.0415459
-0.114873, 0.668053, 0.0389247
-0.110043, 0.668407, 0.0362902
-0.105232, 0.668917, 0.0325103
-0.100439, 0.669596, 0.0274663
-0.0956387, 0.670289, 0.0223179
-0.0908588, 0.671209, 0.0154896
-0.0860231, 0.671799, 0.0111036
-0.0811404, 0.672072, 0.00908041
0.480275, 0.673206, 0.000654221
0.485063, 0.673015, 0.00207472
0.490088, 0.673153, 0.0010519
0.494126, 0.671945, 0.0100164
0.498848, 0.671684, 0.0119615
0.503682, 0.671576, 0.0127578
0.508562, 0.671531, 0.0130949
