-0.0997968, 0.0798374, -0.06424
-0.0598731, 0.0798307, -0.0638189
-0.0199678, 0.0798712, -0.0663843
0.0581613, 0.0775484, 0.080955
0.0968586, 0.0774868, 0.0848594
0.135712, 0.0775496, 0.0808773
0.179337, 0.0797055, -0.0558734
0.218947, 0.0796172, -0.0502729
0.368209, 0.0775175, 0.0829124
0.406786, 0.077483, 0.0851045
0.44603, 0.0775703, 0.079566
-0.180001, 0.133334, -0.0745687
-0.13979, 0.133133, -0.066946
-0.0997812, 0.133042, -0.0634489
-0.0598184, 0.13293, -0.059196
-0.0199142, 0.132762, -0.0528016
0.0195643, 0.130429, 0.0359888
0.0580518, 0.129004, 0.0902171
0.096883, 0.129177, 0.0836248
0.135584, 0.129127, 0.0855217
0.179432, 0.132913, -0.0585523
0.218969, 0.132708, -0.0507607
0.367889, 0.129084, 0.0871749
0.406704, 0.129112, 0.0860925
0.445404, 0.129103, 0.086462
-0.179635, 0.186289, -0.0642762
-0.139784, 0.186379, -0.0667248
-0.09989, 0.186461, -0.0689683
-0.0193691, 0.180779, 0.085516
0.0193483, 0.180584, 0.0907998
0.0581051, 0.180771, 0.0857096
0.139687, 0.18625, -0.0632176
0.179371, 0.186015, -0.0568328
0.219286, 0.186061, -0.0580916
0.368343, 0.180941, 0.0811119
0.407451, 0.181089, 0.0770683
-0.179573, 0.239431, -0.0625134
-0.139695, 0.239477, -0.0634871
-0.0580969, 0.232388, 0.0864005
-0.0193344, 0.232014, 0.0943122
0.0193582, 0.232298, 0.0882878
0.179614, 0.239486, -0.063684
0.219279, 0.239213, -0.0579123
0.258957, 0.239037, -0.0541945
0.298688, 0.23895, -0.0523615
0.368539, 0.232762, 0.078496
0.407879, 0.233074, 0.0718989
-0.179515, 0.292543, -0.0608854
-0.139445, 0.292171, -0.0544477
-0.0972302, 0.285209, 0.0660019
-0.0579779, 0.283448, 0.096467
-0.0193423, 0.283687, 0.0923228
0.258698, 0.291865, -0.0491424
0.297972, 0.29135, -0.0402393
0.329522, 0.284293, 0.0818343
0.368321, 0.284318, 0.0814075
0.407998, 0.284951, 0.0704618
-0.178325, 0.343441, -0.0273418
-0.137068, 0.339407, 0.0317101
-0.0964225, 0.334264, 0.106993
-0.0579989, 0.335105, 0.0946884
-0.0194932, 0.337882, 0.0540385
0.0196318, 0.340285, 0.0188599
0.0589678, 0.340703, 0.0127444
0.179644, 0.345982, -0.0645247
0.218592, 0.344448, -0.0420794
0.254303, 0.339071, 0.0366321
0.290081, 0.335205, 0.0932312
0.328776, 0.335222, 0.0929685
0.368755, 0.336408, 0.075614
-0.214954, 0.390826, 0.0418382
-0.174427, 0.387615, 0.0825725
-0.135002, 0.38572, 0.10661
-0.0963594, 0.385438, 0.110192
-0.0581358, 0.387572, 0.0831094
-0.0194028, 0.388057, 0.0769653
0.0194069, 0.388139, 0.0759254
0.0583315, 0.388877, 0.0665636
0.0976317, 0.390527, 0.0456309
0.137067, 0.391621, 0.0317459
0.178627, 0.396948, -0.0358381
0.214826, 0.390592, 0.0447993
0.250532, 0.385433, 0.110246
0.288974, 0.385298, 0.11196
0.328597, 0.386585, 0.0956383
0.368786, 0.388196, 0.0752029
-0.255045, 0.444694, 0.0221558
-0.213791, 0.440539, 0.0686598
-0.17375, 0.437593, 0.101638
-0.134882, 0.43676, 0.110967
-0.0963212, 0.436656, 0.112134
-0.0579068, 0.437518, 0.102483
-0.0192894, 0.437227, 0.105742
0.0192732, 0.43686, 0.109845
0.0578173, 0.436841, 0.110054
0.0965247, 0.437578, 0.101806
0.135554, 0.438938, 0.0865879
0.17442, 0.439281, 0.082746
0.212557, 0.437996, 0.0971332
0.250372, 0.436547, 0.113355
0.288664, 0.436203, 0.117201
0.327798, 0.437064, 0.107563
0.36836, 0.439447, 0.0808935
0.409352, 0.44184, 0.054101
-0.254986, 0.496896, 0.0233016
-0.213305, 0.491249, 0.0798683
-0.173745, 0.489061, 0.101781
-0.135114, 0.488983, 0.102563
-0.0964869, 0.488867, 0.103721
-0.057906, 0.488984, 0.102548
-0.0192785, 0.48839, 0.108497
0.0192532, 0.487749, 0.114917
0.0577135, 0.487359, 0.118827
0.0962195, 0.487512, 0.117291
0.134928, 0.488312, 0.109282
0.173688, 0.488899, 0.103399
0.212098, 0.488469, 0.107712
0.250286, 0.487737, 0.115041
0.288748, 0.487663, 0.115776
0.327826, 0.488526, 0.10714
0.368221, 0.490962, 0.0827398
0.409928, 0.494516, 0.0471406
-0.255135, 0.549522, 0.0203991
-0.214434, 0.545831, 0.0538416
-0.174467, 0.542787, 0.0814228
-0.135537, 0.542149, 0.0872035
-0.0967537, 0.541821, 0.0901847
-0.0581158, 0.542414, 0.0848041
-0.0193529, 0.541881, 0.0896354
0.019321, 0.540989, 0.0977225
0.0578717, 0.540136, 0.105448
0.0963847, 0.539754, 0.108909
0.134995, 0.539981, 0.106858
0.173692, 0.540375, 0.103286
0.212122, 0.539947, 0.10716
0.25043, 0.539388, 0.11223
0.289114, 0.539679, 0.109589
0.328516, 0.541086, 0.0968451
0.369565, 0.544622, 0.0648022
0.412506, 0.550008, 0.015995
0.452706, 0.551121, 0.00591087
0.569455, 0.549819, 0.0177088
0.60679, 0.548069, 0.0335665
0.644376, 0.546743, 0.0455775
-0.373122, 0.602232, 0.0172973
-0.333988, 0.602489, 0.0151749
-0.295488, 0.604109, 0.00176907
-0.255203, 0.602016, 0.0190816
-0.215038, 0.599501, 0.0398965
-0.175551, 0.598173, 0.0508785
-0.136442, 0.597744, 0.0544291
-0.097521, 0.598128, 0.0512486
-0.0585309, 0.598316, 0.0496936
-0.0195207, 0.598637, 0.0470376
0.0195139, 0.598428, 0.0487685
0.058419, 0.597172, 0.0591598
0.0971217, 0.59568, 0.0715084
0.135776, 0.59483, 0.0785437
0.174384, 0.594197, 0.0837736
0.212737, 0.593085, 0.0929804
0.251458, 0.593182, 0.0921731
0.29082, 0.594566, 0.0807223
0.331261, 0.597569, 0.0558805
0.371876, 0.60022, 0.0339432
0.413037, 0.603165, 0.00957727
0.451891, 0.602521, 0.0149083
0.491995, 0.603514, 0.00668716
0.53211, 0.604372, -0.00041008
0.568716, 0.601401, 0.0241723
0.606328, 0.599808, 0.0373526
0.645658, 0.600006, 0.035718
-0.372961, 0.654317, 0.0194483
-0.333111, 0.653158, 0.0282745
-0.29415, 0.653667, 0.0244007
-0.255281, 0.654568, 0.0175443
-0.215133, 0.65192, 0.0377011
-0.17578, 0.651038, 0.0444107
-0.136704, 0.650969, 0.0449333
-0.098046, 0.65364, 0.0246048
-0.0589642, 0.655159, 0.0130467
0.0981284, 0.654189, 0.0204244
0.136898, 0.651894, 0.0378962
0.175631, 0.650485, 0.0486169
0.214478, 0.649932, 0.0528269
0.253508, 0.650019, 0.052166
0.293013, 0.651139, 0.0436416
0.452191, 0.65535, 0.011591
0.491043, 0.654724, 0.0163527
0.530422, 0.654842, 0.0154572
0.569436, 0.654524, 0.0178728
0.608929, 0.654762, 0.0160637
-0.372924, 0.706592, 0.0199456
-0.332746, 0.70464, 0.0337086
-0.293036, 0.703286, 0.0432467
-0.254364, 0.704393, 0.0354438
-0.215073, 0.703875, 0.0390983
-0.175932, 0.703727, 0.0401411
-0.13723, 0.705754, 0.025857
-0.0982829, 0.707637, 0.0125861
0.531557, 0.708743, 0.00478888
0.570824, 0.708609, 0.00573206
-0.332905, 0.757196, 0.0313387
-0.292978, 0.755233, 0.0442209
-0.254134, 0.755885, 0.0399418
-0.215344, 0.756968, 0.0328369
-0.176706, 0.759183, 0.0182986
-0.137569, 0.759905, 0.0135651
-0.332321, 0.807997, 0.040051
-0.293242, 0.808045, 0.0397582
-0.255046, 0.810916, 0.0221362
-0.216109, 0.812047, 0.0151892
