0.15704, 0.415551, 0.0959597
0.161784, 0.415326, 0.0986247
0.166524, 0.415104, 0.101235
0.171273, 0.414916, 0.103462
0.176036, 0.414769, 0.105195
0.180818, 0.414675, 0.106305
0.185577, 0.414536, 0.107938
0.19034, 0.414411, 0.109416
0.195106, 0.4143, 0.110729
0.19987, 0.414189, 0.112037
0.204641, 0.414096, 0.113131
0.209442, 0.414069, 0.113452
0.214277, 0.414108, 0.112992
0.219112, 0.414147, 0.112537
0.223932, 0.414153, 0.112464
0.228737, 0.414134, 0.112685
0.233548, 0.414127, 0.112772
0.238384, 0.414162, 0.112355
0.243215, 0.414189, 0.112042
0.248081, 0.414271, 0.111068
0.252958, 0.414369, 0.10991
0.257833, 0.41446, 0.108835
0.262678, 0.414501, 0.108353
0.267525, 0.414543, 0.107865
0.272372, 0.414584, 0.107373
0.277229, 0.414638, 0.106735
0.282113, 0.41473, 0.105655
0.286998, 0.41482, 0.104589
0.291885, 0.414911, 0.103518
0.296824, 0.415071, 0.101627
0.301778, 0.415246, 0.0995622
0.306736, 0.415422, 0.0974917
0.311716, 0.415621, 0.0951376
0.316702, 0.415823, 0.0927587
0.32169, 0.41602, 0.0904245
0.326667, 0.416198, 0.0883341
0.331608, 0.416325, 0.0868254
0.336588, 0.416498, 0.0847945
0.34159, 0.416691, 0.0825105
0.346613, 0.416905, 0.0799823
0.351642, 0.41712, 0.0774503
0.356791, 0.41747, 0.0733223
0.362059, 0.417947, 0.0676894
0.367586, 0.418708, 0.0587134
0.373676, 0.42008, 0.0425186
-0.22753, 0.427332, 0.0339322
-0.222224, 0.426539, 0.0431385
-0.216832, 0.425544, 0.0547094
-0.211369, 0.424357, 0.0684958
-0.206086, 0.423487, 0.0786142
-0.200929, 0.422839, 0.0861402
-0.195881, 0.422394, 0.0913129
-0.190855, 0.421975, 0.0961809
-0.185849, 0.42158, 0.100776
-0.180908, 0.421314, 0.103862
-0.176009, 0.421135, 0.105938
-0.171118, 0.420967, 0.1079
-0.166257, 0.420863, 0.109109
-0.16141, 0.420791, 0.109945
-0.156565, 0.420719, 0.110775
-0.151723, 0.420651, 0.11157
-0.146901, 0.420634, 0.111763
-0.142079, 0.420619, 0.11194
-0.137258, 0.420602, 0.112133
-0.132443, 0.420607, 0.112081
-0.127629, 0.420613, 0.112013
-0.122815, 0.42062, 0.111931
-0.118001, 0.420631, 0.111804
-0.113189, 0.420646, 0.11162
-0.108425, 0.420849, 0.109271
-0.103632, 0.420956, 0.108022
-0.0988361, 0.421058, 0.106837
-0.0940431, 0.421184, 0.105368
-0.0892451, 0.421301, 0.104013
-0.0844536, 0.421463, 0.102126
-0.0796811, 0.421746, 0.0988374
-0.0748992, 0.422013, 0.0957437
-0.0700546, 0.421938, 0.0966091
-0.0652168, 0.421897, 0.0970907
-0.0603793, 0.42185, 0.0976372
-0.0555425, 0.421801, 0.098208
-0.0507068, 0.421752, 0.098774
-0.0458711, 0.421693, 0.0994635
-0.0410366, 0.421631, 0.100178
-0.0362034, 0.421569, 0.100898
-0.0313717, 0.421508, 0.101612
-0.0265415, 0.421447, 0.102321
-0.0217129, 0.42139, 0.102975
-0.0168856, 0.421336, 0.103604
-0.0120596, 0.421282, 0.104238
-0.0072348, 0.421228, 0.104866
-0.00241125, 0.421173, 0.105498
0.00241098, 0.421127, 0.106036
0.00723226, 0.42108, 0.106579
0.0120528, 0.421043, 0.107007
0.0168735, 0.421034, 0.107111
0.0216941, 0.421025, 0.107219
0.0265144, 0.421015, 0.107332
0.0313342, 0.421003, 0.107471
0.0361538, 0.420991, 0.107613
0.0409731, 0.420979, 0.10776
0.0457922, 0.420966, 0.107902
0.050611, 0.420955, 0.108039
0.0554339, 0.420976, 0.107792
0.0602623, 0.421032, 0.107141
0.0650917, 0.421087, 0.106495
0.0699228, 0.421144, 0.105834
0.0747574, 0.421214, 0.105028
0.0795937, 0.421283, 0.104217
0.0844314, 0.421353, 0.103411
0.0892724, 0.42143, 0.102519
0.0941294, 0.421571, 0.100875
0.0989894, 0.421711, 0.099247
0.103855, 0.421861, 0.0975032
0.108736, 0.422057, 0.0952263
0.113625, 0.422265, 0.0928149
0.118534, 0.422529, 0.0897412
0.123542, 0.423109, 0.0829968
0.128511, 0.423521, 0.0782199
0.133456, 0.423825, 0.0746822
0.138406, 0.424121, 0.0712399
0.143346, 0.424368, 0.0683699
0.147654, 0.422789, 0.0867167
0.152318, 0.422299, 0.0924106
0.157044, 0.422004, 0.0958376
0.161788, 0.421776, 0.0984936
0.166527, 0.421547, 0.101153
0.171269, 0.421338, 0.103578
0.17601, 0.421138, 0.105908
0.180793, 0.421048, 0.106959
0.185586, 0.420982, 0.107715
0.190341, 0.420838, 0.109392
0.195097, 0.420702, 0.110974
0.19986, 0.420589, 0.112282
0.204653, 0.420541, 0.112848
0.209446, 0.420497, 0.113358
0.214239, 0.420453, 0.113864
0.21903, 0.420409, 0.114384
0.223859, 0.420438, 0.114042
0.22867, 0.420431, 0.114124
0.233499, 0.420458, 0.113812
0.238334, 0.420495, 0.113376
0.243168, 0.420527, 0.113004
0.247998, 0.420554, 0.112696
0.25283, 0.42058, 0.112393
0.257692, 0.420655, 0.111517
0.262557, 0.420734, 0.110607
0.267401, 0.420776, 0.11012
0.272262, 0.420842, 0.109348
0.277142, 0.420934, 0.108273
0.282024, 0.421027, 0.107203
0.286907, 0.421118, 0.106137
0.291793, 0.421211, 0.105056
0.296681, 0.421303, 0.103991
0.301572, 0.421396, 0.10291
0.306523, 0.421569, 0.100899
0.311485, 0.421753, 0.0987639
0.316468, 0.421957, 0.096385
0.321456, 0.422163, 0.0940013
0.326449, 0.422368, 0.0916133
0.331451, 0.422579, 0.089159
0.336479, 0.422818, 0.0863833
0.341503, 0.423044, 0.0837612
0.346525, 0.423261, 0.081234
0.351552, 0.423479, 0.078701
0.356584, 0.423697, 0.0761733
0.361766, 0.424083, 0.0716839
0.367033, 0.424559, 0.0661464
0.372474, 0.425221, 0.0584579
0.378271, 0.426267, 0.0463052
-0.232762, 0.43449, 0.0266767
-0.227338, 0.43349, 0.038115
-0.222108, 0.432826, 0.0457182
-0.216731, 0.431838, 0.0570292
-0.211294, 0.430684, 0.0702362
-0.206027, 0.429828, 0.0800357
-0.200875, 0.429178, 0.0874715
-0.195818, 0.428705, 0.0928922
-0.190848, 0.428401, 0.0963659
-0.185839, 0.427992, 0.10105
-0.180896, 0.427719, 0.104176
-0.175998, 0.427538, 0.106252
-0.171108, 0.427368, 0.108193
-0.166224, 0.427203, 0.11008
-0.161378, 0.42713, 0.110915
-0.156542, 0.427078, 0.111517
-0.151714, 0.427047, 0.111874
-0.146893, 0.427032, 0.112037
-0.142075, 0.427029, 0.112075
-0.137258, 0.427025, 0.112117
-0.132443, 0.427028, 0.112085
-0.127638, 0.427066, 0.111649
-0.122824, 0.427073, 0.111567
-0.118009, 0.427081, 0.111479
-0.113194, 0.427087, 0.111405
-0.108385, 0.427118, 0.111059
-0.103594, 0.427223, 0.109849
-0.0988089, 0.427369, 0.108187
-0.0940162, 0.427493, 0.106768
-0.089218, 0.427603, 0.105503
-0.0844118, 0.427686, 0.104551
-0.0796274, 0.427897, 0.10214
-0.0748513, 0.428182, 0.0988774
-0.0700211, 0.428175, 0.0989561
-0.0651844, 0.428125, 0.0995278
-0.0603496, 0.428079, 0.100054
-0.0555134, 0.428016, 0.100775
-0.0506787, 0.427954, 0.10149
-0.0458455, 0.427892, 0.102199
-0.0410137, 0.427829, 0.102914
-0.0361832, 0.427766, 0.103633
-0.0313542, 0.427704, 0.104347
-0.0265267, 0.427642, 0.105056
-0.0217007, 0.427584, 0.10572
-0.0168761, 0.427528, 0.106359
-0.0120528, 0.427474, 0.106982
-0.00723074, 0.427419, 0.10761
-0.0024099, 0.427364, 0.108243
0.00240959, 0.427309, 0.108871
0.00722794, 0.427254, 0.109503
0.0120453, 0.427206, 0.110051
0.0168629, 0.427193, 0.110194
0.0216803, 0.427181, 0.110332
0.0264973, 0.427169, 0.110476
0.0313141, 0.427157, 0.110613
0.0361306, 0.427144, 0.110756
0.0409468, 0.427131, 0.110903
0.0457627, 0.427119, 0.111045
0.0505785, 0.427107, 0.111182
0.0553978, 0.427125, 0.110975
0.0602231, 0.427182, 0.110324
0.0650494, 0.427238, 0.109678
0.0698772, 0.427295, 0.109027
0.0747062, 0.427352, 0.10838
0.0795374, 0.427413, 0.107678
0.0843718, 0.427483, 0.106873
0.0892076, 0.427554, 0.106071
0.0940606, 0.427694, 0.104457
0.0989173, 0.427838, 0.102818
0.103777, 0.42798, 0.101185
0.10864, 0.428123, 0.0995555
0.113507, 0.428266, 0.0979109
0.118377, 0.428411, 0.096261
0.123335, 0.428853, 0.0912008
0.128355, 0.429465, 0.0841928
0.133332, 0.429894, 0.0792823
0.138272, 0.430181, 0.0759988
0.143253, 0.430569, 0.0715561
0.147816, 0.429717, 0.0813074
0.1524, 0.428979, 0.0897584
0.157069, 0.428517, 0.0950379
0.161794, 0.428231, 0.09832
0.166531, 0.427994, 0.101029
0.171271, 0.427776, 0.103524
0.176026, 0.427607, 0.105455
0.180798, 0.427488, 0.106824
0.185591, 0.427422, 0.107581
0.190355, 0.427296, 0.109018
0.195102, 0.427136, 0.110849
0.199874, 0.427039, 0.111958
0.204669, 0.426995, 0.112464
0.209463, 0.426951, 0.112965
0.214256, 0.426907, 0.11347
0.219048, 0.426863, 0.113979
0.223839, 0.426819, 0.114474
0.228627, 0.42677, 0.115034
0.233449, 0.426786, 0.114851
0.238284, 0.426825, 0.114415
0.243119, 0.426863, 0.113973
0.247949, 0.42689, 0.113665
0.25278, 0.426917, 0.113352
0.257611, 0.426944, 0.113043
0.262443, 0.426972, 0.11273
0.2673, 0.427039, 0.111964
0.272176, 0.427132, 0.110894
0.277054, 0.427226, 0.109819
0.281934, 0.42732, 0.108748
0.286816, 0.427413, 0.107683
0.291701, 0.427507, 0.106602
0.296587, 0.4276, 0.105537
0.301476, 0.427694, 0.104466
0.306367, 0.427788, 0.10339
0.311264, 0.427888, 0.102239
0.316234, 0.428083, 0.100009
0.321229, 0.428305, 0.0974665
0.326254, 0.428561, 0.0945411
0.331286, 0.428818, 0.0916009
0.336321, 0.429071, 0.088695
0.341353, 0.429314, 0.0859141
0.346411, 0.429582, 0.0828505
0.351462, 0.429835, 0.0799603
0.356493, 0.430055, 0.0774326
0.361529, 0.430277, 0.0749011
0.366738, 0.430694, 0.070118
0.372015, 0.43118, 0.0645566
0.37743, 0.431812, 0.0573215
0.383165, 0.432789, 0.0461392
-0.232447, 0.440427, 0.0334053
-0.227209, 0.439759, 0.0409327
-0.221939, 0.439, 0.0494895
-0.216586, 0.438038, 0.0603414
-0.211215, 0.436997, 0.0720754
-0.205968, 0.436167, 0.0814352
-0.200826, 0.435526, 0.0886712
-0.195742, 0.434983, 0.0947876
-0.190809, 0.434756, 0.0973563
-0.185842, 0.434436, 0.100964
-0.180896, 0.434151, 0.104179
-0.175986, 0.433939, 0.106564
-0.171098, 0.433769, 0.108485
-0.166226, 0.433634, 0.110003
-0.161378, 0.433553, 0.110918
-0.156549, 0.433521, 0.11128
-0.151721, 0.433489, 0.111638
-0.146897, 0.433468, 0.11188
-0.142078, 0.433457, 0.111998
-0.13726, 0.433453, 0.112051
-0.132443, 0.433451, 0.112069
-0.127628, 0.433455, 0.11202
-0.122828, 0.433509, 0.111411
-0.118018, 0.433535, 0.111124
-0.113203, 0.433543, 0.111031
-0.108387, 0.433549, 0.110962
-0.103583, 0.433604, 0.110341
-0.0987897, 0.433711, 0.109137
-0.093991, 0.433805, 0.108076
-0.0891948, 0.433921, 0.106771
-0.0843907, 0.434009, 0.105771
-0.0795898, 0.434126, 0.104455
-0.0748161, 0.434416, 0.101183
-0.0700017, 0.434493, 0.100315
-0.0651711, 0.434474, 0.100528
-0.060336, 0.434419, 0.101154
-0.0555004, 0.434351, 0.101924
-0.0506663, 0.434283, 0.102689
-0.0458341, 0.434218, 0.103419
-0.0410033, 0.434153, 0.104153
-0.0361741, 0.434089, 0.104872
-0.0313461, 0.434024, 0.105606
-0.0265198, 0.433959, 0.106335
-0.021695, 0.4339, 0.107009
-0.0168718, 0.433847, 0.107607
-0.0120498, 0.433794, 0.108202
-0.007229, 0.433742, 0.10879
-0.00240933, 0.433689, 0.109382
0.00240904, 0.433636, 0.10998
0.00722624, 0.433577, 0.110652
0.0120422, 0.433519, 0.111299
0.0168578, 0.433485, 0.111682
0.0216727, 0.433454, 0.11204
0.0264877, 0.433435, 0.112252
0.0313023, 0.433417, 0.11245
0.0361165, 0.433398, 0.112661
0.0409303, 0.43338, 0.112869
0.0457438, 0.433362, 0.11307
0.0505568, 0.433344, 0.113277
0.0553722, 0.433347, 0.113239
0.0601925, 0.433385, 0.112807
0.0650134, 0.433423, 0.112381
0.0698353, 0.433461, 0.111959
0.0746581, 0.433499, 0.111531
0.0794849, 0.433554, 0.110909
0.0843133, 0.433611, 0.110263
0.0891446, 0.433676, 0.10953
0.093992, 0.433809, 0.108027
0.098845, 0.433954, 0.106398
0.103702, 0.434102, 0.104724
0.108563, 0.43425, 0.103055
0.113426, 0.434399, 0.101381
0.118294, 0.434548, 0.0997019
0.123191, 0.434792, 0.0969415
0.128134, 0.435172, 0.0926633
0.133164, 0.43581, 0.0854626
0.13815, 0.436264, 0.0803475
0.143124, 0.436649, 0.0760036
0.14821, 0.437342, 0.0681906
0.152478, 0.435651, 0.087255
0.157108, 0.435068, 0.0938282
0.161827, 0.434758, 0.0973287
0.166546, 0.434468, 0.100605
0.171285, 0.434243, 0.103139
0.176055, 0.434108, 0.104663
0.180822, 0.433973, 0.106181
0.185596, 0.433861, 0.107444
0.19037, 0.433756, 0.108634
0.195124, 0.433608, 0.110295
0.199904, 0.433527, 0.111214
0.204699, 0.43348, 0.11174
0.209493, 0.433434, 0.112261
0.214287, 0.43339, 0.112756
0.21908, 0.433345, 0.113266
0.223871, 0.433299, 0.11378
0.228657, 0.433244, 0.114399
0.233441, 0.43319, 0.115013
0.238233, 0.433151, 0.115451
0.243068, 0.43319, 0.115009
0.247901, 0.433224, 0.114623
0.25273, 0.433252, 0.114309
0.257561, 0.43328, 0.114001
0.262399, 0.43332, 0.113548
0.267244, 0.433369, 0.112991
0.272091, 0.433419, 0.112428
0.276959, 0.4335, 0.111512
0.281837, 0.433596, 0.110432
0.286718, 0.433691, 0.109356
0.291601, 0.433787, 0.108276
0.296486, 0.433883, 0.1072
0.301374, 0.433978, 0.10612
0.306264, 0.434075, 0.105033
0.311158, 0.434174, 0.103912
0.316072, 0.434297, 0.102528
0.321057, 0.434514, 0.100084
0.326079, 0.434772, 0.0971689
0.331108, 0.435032, 0.0942388
0.336144, 0.435295, 0.0912743
0.341192, 0.435564, 0.0882344
0.346228, 0.435812, 0.0854487
0.351289, 0.436083, 0.0823898
0.356357, 0.436355, 0.0793161
0.36143, 0.436627, 0.0762577
0.366477, 0.43686, 0.0736213
0.371712, 0.437308, 0.0685768
0.377036, 0.437849, 0.0624743
0.382592, 0.43864, 0.0535474
-0.237638, 0.447511, 0.0271873
-0.232308, 0.446683, 0.0363898
-0.227063, 0.445987, 0.0441251
-0.2217, 0.445024, 0.054821
-0.216435, 0.444219, 0.0637717
-0.211153, 0.44334, 0.0735331
-0.205915, 0.442515, 0.0827026
-0.200785, 0.441889, 0.0896602
-0.195687, 0.441302, 0.0961838
-0.190767, 0.441099, 0.0984335
-0.185856, 0.440906, 0.100578
-0.180899, 0.440588, 0.104112
-0.175975, 0.44034, 0.106874
-0.171112, 0.440231, 0.108078
-0.16626, 0.440147, 0.109019
-0.16141, 0.440063, 0.109953
-0.156562, 0.439978, 0.110893
-0.151729, 0.439933, 0.1114
-0.146902, 0.439904, 0.111722
-0.142082, 0.439893, 0.11184
-0.137263, 0.439883, 0.111952
-0.132444, 0.439876, 0.11203
-0.127629, 0.439879, 0.111992
-0.122814, 0.439883, 0.111949
-0.118012, 0.439935, 0.111373
-0.11321, 0.439993, 0.110734
-0.108396, 0.440006, 0.110585
-0.103581, 0.44002, 0.110432
-0.0987798, 0.440092, 0.109626
-0.0939843, 0.4402, 0.108426
-0.0891807, 0.440279, 0.10755
-0.0843766, 0.440365, 0.106589
-0.0795763, 0.440483, 0.105284
-0.0747758, 0.440614, 0.103824
-0.0699746, 0.44076, 0.10221
-0.0651511, 0.440775, 0.102034
-0.0603243, 0.440769, 0.102103
-0.0554903, 0.440705, 0.102813
-0.050657, 0.440636, 0.103588
-0.0458252, 0.440565, 0.104367
-0.040995, 0.440496, 0.105141
-0.0361666, 0.440429, 0.105881
-0.0313397, 0.440364, 0.106605
-0.0265144, 0.440299, 0.107333
-0.0216904, 0.440234, 0.108047
-0.0168683, 0.440181, 0.108635
-0.0120473, 0.440128, 0.109229
-0.00722746, 0.440074, 0.109827
-0.00240879, 0.440014, 0.11049
0.00240846, 0.439954, 0.111167
0.00722449, 0.439893, 0.111839
0.0120392, 0.439833, 0.112505
0.0168536, 0.439799, 0.112888
0.0216672, 0.439764, 0.113275
0.0264801, 0.439729, 0.113657
0.0312923, 0.439697, 0.114015
0.0361049, 0.439678, 0.114227
0.0409172, 0.43966, 0.114434
0.0457291, 0.439641, 0.114635
0.0505406, 0.439623, 0.114842
0.0553541, 0.439624, 0.114834
0.0601727, 0.439662, 0.114412
0.0649921, 0.4397, 0.113985
0.0698125, 0.439739, 0.113553
0.0746336, 0.439776, 0.113136
0.0794557, 0.439815, 0.112703
0.0842782, 0.439852, 0.112295
0.0891004, 0.439883, 0.111951
0.0939361, 0.439974, 0.110936
0.0987802, 0.440094, 0.109606
0.10363, 0.440225, 0.108151
0.108487, 0.440375, 0.106483
0.113347, 0.440526, 0.104809
0.118211, 0.440676, 0.103139
0.1231, 0.440906, 0.100589
0.12801, 0.441191, 0.0974159
0.132936, 0.441507, 0.0938993
0.137958, 0.44211, 0.0872021
0.142989, 0.442701, 0.0806389
0.148057, 0.443363, 0.0732841
0.152641, 0.442578, 0.0820026
0.157196, 0.441762, 0.0910735
0.161859, 0.441288, 0.0963359
0.166592, 0.441027, 0.0992336
0.171328, 0.440787, 0.101907
0.176085, 0.440615, 0.103818
0.180852, 0.440476, 0.105366
0.185617, 0.440338, 0.106898
0.190385, 0.440215, 0.108256
0.195159, 0.440113, 0.1094
0.199938, 0.440024, 0.110389
0.20473, 0.439969, 0.110994
0.209525, 0.439921, 0.111525
0.214318, 0.439874, 0.11205
0.219112, 0.439829, 0.11255
0.2239, 0.439776, 0.113144
0.228686, 0.43972, 0.113763
0.233472, 0.439665, 0.114376
0.238255, 0.439609, 0.114994
0.243038, 0.439553, 0.115616
0.24785, 0.439553, 0.115618
0.252681, 0.439584, 0.115274
0.257516, 0.439622, 0.114846
0.26236, 0.439673, 0.114285
0.267204, 0.439723, 0.113727
0.272049, 0.439773, 0.113174
0.276897, 0.439824, 0.112606
0.281744, 0.439874, 0.112053
0.286619, 0.439963, 0.111057
0.2915, 0.440061, 0.109977
0.296383, 0.440157, 0.108901
0.301271, 0.440257, 0.10779
0.306172, 0.440374, 0.106495
0.311077, 0.440491, 0.105196
0.315991, 0.440618, 0.103781
0.320922, 0.440765, 0.102153
0.325905, 0.440978, 0.0997844
0.330931, 0.441241, 0.0968642
0.335964, 0.441507, 0.0939097
0.341004, 0.441774, 0.0909395
0.346055, 0.442047, 0.0879059
0.351104, 0.442311, 0.0849757
0.356169, 0.442586, 0.081913
0.361239, 0.442861, 0.0788546
0.366322, 0.443144, 0.0757117
0.371475, 0.443503, 0.0717196
0.37682, 0.44408, 0.06531
0.382267, 0.444761, 0.057744
0.388023, 0.445779, 0.0464306
-0.237516, 0.453811, 0.0297427
-0.232204, 0.453002, 0.0385962
-0.226843, 0.452059, 0.0489273
-0.221482, 0.451076, 0.0596919
-0.216283, 0.450387, 0.0672383
-0.211098, 0.449695, 0.0748205
-0.205867, 0.448871, 0.0838404
-0.200738, 0.448233, 0.0908256
-0.195684, 0.447738, 0.0962543
-0.190739, 0.447472, 0.0991607
-0.185839, 0.447302, 0.101027
-0.180901, 0.447026, 0.104053
-0.17601, 0.446855, 0.105918
-0.17114, 0.446732, 0.107272
-0.16629, 0.446652, 0.108142
-0.161441, 0.446573, 0.109007
-0.156593, 0.44649, 0.109918
-0.151746, 0.446405, 0.110852
-0.146908, 0.446345, 0.111512
-0.142087, 0.446329, 0.11168
-0.137267, 0.446319, 0.111793
-0.132448, 0.44631, 0.111889
-0.127634, 0.446316, 0.111822
-0.122819, 0.446322, 0.11176
-0.118004, 0.446329, 0.111682
-0.113196, 0.446362, 0.11132
-0.108393, 0.446418, 0.110704
-0.103587, 0.44647, 0.110143
-0.098777, 0.446504, 0.109765
-0.0939749, 0.446582, 0.108914
-0.089175, 0.446678, 0.107859
-0.0843687, 0.446752, 0.107048
-0.079563, 0.446839, 0.106101
-0.0747631, 0.446971, 0.104652
-0.0699559, 0.447075, 0.103516
-0.065132, 0.447079, 0.103469
-0.0603065, 0.447072, 0.103547
-0.0554803, 0.447058, 0.103701
-0.0506479, 0.446987, 0.104475
-0.0458169, 0.446916, 0.105254
-0.0409876, 0.446845, 0.106028
-0.0361598, 0.446774, 0.106807
-0.0313335, 0.446704, 0.107581
-0.0265089, 0.446634, 0.108339
-0.0216859, 0.446568, 0.109063
-0.0168647, 0.446513, 0.109671
-0.0120446, 0.446454, 0.110314
-0.00722574, 0.446392, 0.110992
-0.00240821, 0.44633, 0.111674
0.00240787, 0.446268, 0.112351
0.00722272, 0.446206, 0.113034
0.0120362, 0.446144, 0.11371
0.0168495, 0.446109, 0.114092
0.0216619, 0.446074, 0.11448
0.0264736, 0.446039, 0.114862
0.0312844, 0.446003, 0.115249
0.0360946, 0.445969, 0.11563
0.0409041, 0.445935, 0.115996
0.0457145, 0.445917, 0.116199
0.0505244, 0.445898, 0.116405
0.0553361, 0.445896, 0.116426
0.0601531, 0.445934, 0.116005
0.0649709, 0.445973, 0.115578
0.0697896, 0.446012, 0.115156
0.0746083, 0.446045, 0.114789
0.0794275, 0.446078, 0.114435
0.0842472, 0.446109, 0.114097
0.0890676, 0.44614, 0.113753
0.0939001, 0.446226, 0.112808
0.0987406, 0.44634, 0.111567
0.103585, 0.44646, 0.110252
0.108432, 0.446581, 0.108922
0.113283, 0.446703, 0.107586
0.118135, 0.446825, 0.106256
0.123008, 0.447009, 0.104234
0.127914, 0.447298, 0.101071
0.132827, 0.447588, 0.0978928
0.137747, 0.447878, 0.0947204
0.142757, 0.448434, 0.0886254
0.147918, 0.449412, 0.0779171
0.152996, 0.450084, 0.0705585
0.157289, 0.448474, 0.0881886
0.161924, 0.447908, 0.0943861
0.166656, 0.447636, 0.0973735
0.171394, 0.447395, 0.100007
0.176117, 0.447129, 0.102923
0.180885, 0.446988, 0.104471
0.18565, 0.446846, 0.106023
0.190418, 0.44672, 0.1074
0.195195, 0.446618, 0.108514
0.199974, 0.446529, 0.109493
0.204761, 0.44646, 0.110248
0.209557, 0.446412, 0.110778
0.214351, 0.446364, 0.111303
0.21913, 0.446287, 0.112141
0.22391, 0.446216, 0.112924
0.228699, 0.446163, 0.113503
0.233486, 0.446111, 0.114067
0.238273, 0.44606, 0.114635
0.243058, 0.446007, 0.115207
0.247842, 0.445955, 0.115785
0.252637, 0.445925, 0.116108
0.257479, 0.445976, 0.115551
0.262321, 0.446026, 0.114999
0.267165, 0.446077, 0.114441
0.27201, 0.446128, 0.113889
0.276856, 0.446179, 0.113331
0.281702, 0.446229, 0.112778
0.28655, 0.44628, 0.112219
0.2914, 0.446332, 0.111656
0.296294, 0.446449, 0.110372
0.301192, 0.446567, 0.109072
0.306092, 0.446686, 0.107777
0.310995, 0.446804, 0.106477
0.315911, 0.446937, 0.105023
0.32084, 0.447086, 0.103395
0.325773, 0.447234, 0.101772
0.330754, 0.447443, 0.0994878
0.335783, 0.44771, 0.0965528
0.340821, 0.447982, 0.0935831
0.345864, 0.448253, 0.0906091
0.350918, 0.44853, 0.0875802
0.355995, 0.448828, 0.0843182
0.361104, 0.449159, 0.0806932
0.366222, 0.449491, 0.0770545
0.371358, 0.449837, 0.0732617
0.376623, 0.450328, 0.0678854
0.381988, 0.450924, 0.0613532
0.387509, 0.451687, 0.0529995
0.393788, 0.453304, 0.0352902
-0.237574, 0.460452, 0.0285368
-0.232025, 0.459165, 0.0424318
-0.226587, 0.458046, 0.0545125
-0.221338, 0.457269, 0.0628982
-0.216139, 0.456564, 0.0705147
-0.210999, 0.455951, 0.0771303
-0.205824, 0.455235, 0.0848656
-0.200684, 0.454561, 0.0921392
-0.195682, 0.454174, 0.096314
-0.190721, 0.453867, 0.099628
-0.185813, 0.453674, 0.101712
-0.180928, 0.453527, 0.103304
-0.176055, 0.453403, 0.104644
-0.171185, 0.453278, 0.105996
-0.166317, 0.453153, 0.107345
-0.161463, 0.45306, 0.108349
-0.156615, 0.45298, 0.109209
-0.15177, 0.4529, 0.110073
-0.146926, 0.452822, 0.110913
-0.142101, 0.452798, 0.11118
-0.137287, 0.452805, 0.111104
-0.132472, 0.452812, 0.111021
-0.127657, 0.452819, 0.110944
-0.122839, 0.45282, 0.110941
-0.118024, 0.452826, 0.110874
-0.11321, 0.452839, 0.110731
-0.108401, 0.452876, 0.110334
-0.103592, 0.452913, 0.109932
-0.09878, 0.452943, 0.109614
-0.0939713, 0.45299, 0.109102
-0.0891687, 0.453073, 0.108206
-0.0843634, 0.453152, 0.107355
-0.0795546, 0.45322, 0.106617
-0.0747501, 0.453323, 0.105506
-0.069945, 0.453437, 0.104281
-0.0651248, 0.453462, 0.104006
-0.0602999, 0.453455, 0.104084
-0.0554752, 0.453449, 0.104147
-0.0506437, 0.453382, 0.104872
-0.0458128, 0.453305, 0.1057
-0.0409835, 0.45323, 0.106515
-0.0361558, 0.453153, 0.107343
-0.0313298, 0.453078, 0.108157
-0.0265055, 0.453002, 0.108974
-0.0216827, 0.452926, 0.109788
-0.0168616, 0.452855, 0.110556
-0.0120423, 0.45279, 0.111259
-0.0072243, 0.452725, 0.111966
-0.00240772, 0.45266, 0.112669
0.00240737, 0.452595, 0.113365
0.0072212, 0.45253, 0.114067
0.0120336, 0.452465, 0.114774
0.0168455, 0.452423, 0.115225
0.0216566, 0.452382, 0.115663
0.0264671, 0.452345, 0.116065
0.0312767, 0.452309, 0.116451
0.0360857, 0.452274, 0.116832
0.0408939, 0.452238, 0.117218
0.0457014, 0.452203, 0.117599
0.0505083, 0.452169, 0.117965
0.0553179, 0.452163, 0.118027
0.0601333, 0.452202, 0.117616
0.0649484, 0.452234, 0.117268
0.0697643, 0.452265, 0.116926
0.074581, 0.452298, 0.116578
0.0793983, 0.452329, 0.116235
0.0842161, 0.452361, 0.115897
0.0890348, 0.452393, 0.115553
0.0938644, 0.452475, 0.114667
0.098703, 0.452589, 0.113427
0.103544, 0.452704, 0.112192
0.108388, 0.452822, 0.110911
0.113237, 0.452946, 0.109576
0.118087, 0.453069, 0.108246
0.122946, 0.453213, 0.106691
0.127832, 0.453441, 0.104235
0.132739, 0.453726, 0.101157
0.137652, 0.454009, 0.098104
0.14257, 0.454291, 0.0950561
0.147645, 0.455037, 0.0870056
0.152825, 0.45605, 0.0760651
0.157944, 0.456823, 0.0677171
0.162069, 0.45476, 0.0899973
0.166719, 0.454248, 0.0955219
0.171461, 0.454009, 0.098105
0.176185, 0.453737, 0.101041
0.180918, 0.453502, 0.103573
0.185689, 0.45337, 0.104996
0.190464, 0.453256, 0.106235
0.195236, 0.45314, 0.107478
0.200011, 0.453036, 0.108605
0.204793, 0.452953, 0.109499
0.209589, 0.452904, 0.11003
0.214375, 0.452837, 0.110754
0.219142, 0.452734, 0.11187
0.223907, 0.45263, 0.112991
0.228682, 0.45255, 0.113858
0.233469, 0.452497, 0.114421
0.238256, 0.452445, 0.11499
0.24304, 0.452392, 0.115562
0.247832, 0.452353, 0.115981
0.252639, 0.452343, 0.116085
0.257455, 0.452352, 0.115995
0.262295, 0.452399, 0.115483
0.267139, 0.452451, 0.114926
0.271983, 0.452502, 0.114373
0.276828, 0.452553, 0.113815
0.281674, 0.452605, 0.113262
0.286521, 0.452655, 0.112723
0.29137, 0.452707, 0.11216
0.296226, 0.452769, 0.111491
0.301113, 0.452874, 0.110351
0.306012, 0.452994, 0.109056
0.310914, 0.453115, 0.107757
0.31583, 0.453252, 0.106272
0.320759, 0.453403, 0.104644
0.32569, 0.453553, 0.103022
0.330625, 0.453704, 0.101393
0.335602, 0.453908, 0.099194
0.340637, 0.454183, 0.0962243
0.345707, 0.454496, 0.0928431
0.350796, 0.454825, 0.0892882
0.355896, 0.45516, 0.0856781
0.361006, 0.455497, 0.0820346
0.366121, 0.455833, 0.0784059
0.371259, 0.456187, 0.0745835
0.376455, 0.456603, 0.0700912
0.381781, 0.457164, 0.0640364
0.387218, 0.457842, 0.0567155
0.392898, 0.458787, 0.0465121
-0.237367, 0.466576, 0.0328689
-0.231789, 0.465204, 0.0474782
-0.226412, 0.464185, 0.0583248
-0.221195, 0.463456, 0.0660934
-0.216027, 0.4628, 0.0730715
-0.210889, 0.462179, 0.0796866
-0.205772, 0.461575, 0.0861087
-0.200634, 0.460895, 0.0933509
-0.195673, 0.460597, 0.0965209
-0.190719, 0.4603, 0.0996847
-0.185794, 0.46006, 0.102237
-0.180938, 0.459985, 0.103043
-0.176083, 0.459907, 0.103875
-0.171218, 0.459796, 0.105048
-0.166355, 0.459686, 0.106227
-0.161493, 0.459573, 0.10743
-0.156637, 0.459468, 0.108549
-0.151796, 0.459405, 0.109214
-0.146961, 0.459352, 0.109775
-0.142128, 0.459308, 0.110251
-0.137311, 0.45931, 0.110224
-0.132495, 0.459317, 0.110152
-0.127679, 0.459324, 0.110075
-0.122862, 0.459328, 0.110032
-0.118044, 0.459328, 0.110034
-0.113227, 0.459332, 0.109991
-0.108414, 0.459355, 0.109744
-0.103604, 0.459392, 0.109351
-0.0987904, 0.459416, 0.109103
-0.0939754, 0.459436, 0.10889
-0.0891651, 0.459481, 0.108402
-0.084358, 0.45955, 0.10767
-0.0795485, 0.459614, 0.106993
-0.0747407, 0.459696, 0.106122
-0.0699341, 0.459797, 0.105045
-0.0651176, 0.459843, 0.104551
-0.0602934, 0.459838, 0.104609
-0.0554694, 0.459833, 0.104662
-0.0506402, 0.459781, 0.105217
-0.0458096, 0.459704, 0.106037
-0.0409806, 0.459626, 0.10686
-0.0361534, 0.45955, 0.107669
-0.0313277, 0.459474, 0.108483
-0.0265037, 0.459397, 0.1093
-0.0216812, 0.459321, 0.110113
-0.0168605, 0.459248, 0.110881
-0.0120414, 0.459178, 0.111633
-0.00722369, 0.459108, 0.112381
-0.00240751, 0.459042, 0.113083
0.00240717, 0.458976, 0.11378
0.00722057, 0.458909, 0.114491
0.0120326, 0.458844, 0.115188
0.016844, 0.4588, 0.11566
0.0216547, 0.458759, 0.116097
0.0264645, 0.458717, 0.116539
0.0312733, 0.458676, 0.116975
0.0360814, 0.458636, 0.117406
0.0408886, 0.458594, 0.117852
0.045695, 0.458553, 0.118282
0.0505, 0.458508, 0.118768
0.0553054, 0.458474, 0.119128
0.0601168, 0.45849, 0.118955
0.0649286, 0.458509, 0.118757
0.0697411, 0.458528, 0.118555
0.0745538, 0.458546, 0.118356
0.0793691, 0.458577, 0.118033
0.0841852, 0.458608, 0.117694
0.089002, 0.458641, 0.117351
0.0938287, 0.458718, 0.116525
0.0986655, 0.458835, 0.115285
0.103505, 0.458951, 0.11405
0.108346, 0.459067, 0.112809
0.113191, 0.459184, 0.111564
0.11804, 0.45931, 0.110223
0.122893, 0.459444, 0.108798
0.127767, 0.459641, 0.106701
0.132655, 0.459869, 0.10427
0.137567, 0.460166, 0.101118
0.142483, 0.460452, 0.0980697
0.147418, 0.460782, 0.0945582
0.152536, 0.461642, 0.0854001
0.157733, 0.462683, 0.0743165
0.162213, 0.461622, 0.0856175
0.16684, 0.461026, 0.091958
0.171527, 0.460625, 0.0962224
0.176253, 0.460351, 0.0991483
0.180977, 0.460085, 0.101978
0.185731, 0.459904, 0.103899
0.190508, 0.459793, 0.105087
0.195283, 0.459678, 0.10631
0.200054, 0.459562, 0.107547
0.204826, 0.459453, 0.108699
0.209617, 0.459391, 0.109369
0.214387, 0.459285, 0.110491
0.219154, 0.45918, 0.111608
0.223919, 0.459075, 0.112728
0.228683, 0.45897, 0.113844
0.233453, 0.458883, 0.114775
0.238238, 0.458828, 0.115353
0.243031, 0.458791, 0.115757
0.247834, 0.458774, 0.115936
0.252641, 0.458765, 0.116031
0.257458, 0.458773, 0.115941
0.262275, 0.458781, 0.115856
0.267112, 0.458822, 0.115418
0.271956, 0.458875, 0.114856
0.2768, 0.458927, 0.114307
0.281645, 0.458977, 0.113774
0.28649, 0.459026, 0.113246
0.291341, 0.459082, 0.112652
0.296196, 0.459144, 0.111994
0.301053, 0.459206, 0.11133
0.305932, 0.4593, 0.110334
0.310833, 0.459422, 0.109034
0.31575, 0.459565, 0.107511
0.320677, 0.459717, 0.105893
0.325607, 0.45987, 0.10427
0.330544, 0.460027, 0.102592
0.335501, 0.460208, 0.10067
0.340541, 0.460496, 0.0976024
0.345626, 0.460835, 0.0939927
0.350712, 0.461166, 0.0904679
0.355796, 0.461486, 0.0870571
0.360907, 0.461831, 0.083384
0.366021, 0.462172, 0.0797548
0.37116, 0.462535, 0.0758934
0.376318, 0.462911, 0.071888
0.381605, 0.463435, 0.0663095
0.386947, 0.464012, 0.0601711
0.392456, 0.464772, 0.052073
0.398531, 0.466176, 0.0371323
-0.243085, 0.474711, 0.0159745
-0.237117, 0.472603, 0.0381031
-0.231559, 0.471243, 0.0523829
-0.226281, 0.470405, 0.0611792
-0.221087, 0.469709, 0.06849
-0.215915, 0.469029, 0.0756269
-0.210789, 0.46842, 0.0820227
-0.205679, 0.467819, 0.0883341
-0.200622, 0.467312, 0.0936561
-0.19566, 0.467008, 0.0968447
-0.190705, 0.466705, 0.100029
-0.185794, 0.466496, 0.102222
-0.180944, 0.466434, 0.10288
-0.176091, 0.466359, 0.103661
-0.171239, 0.466283, 0.104456
-0.166375, 0.466172, 0.105625
-0.161514, 0.46606, 0.106798
-0.156671, 0.465997, 0.107469
-0.151832, 0.465939, 0.108075
-0.146995, 0.465885, 0.108635
-0.142159, 0.465833, 0.10919
-0.137338, 0.465824, 0.109283
-0.132519, 0.465826, 0.109261
-0.127702, 0.465831, 0.109204
-0.122885, 0.465838, 0.109131
-0.118066, 0.465838, 0.109133
-0.113247, 0.465838, 0.109129
-0.108429, 0.465841, 0.109101
-0.103617, 0.465874, 0.108758
-0.0988007, 0.46589, 0.108591
-0.0939839, 0.465903, 0.108447
-0.0891703, 0.465935, 0.108118
-0.0843576, 0.465975, 0.107695
-0.0795425, 0.466006, 0.107366
-0.0747342, 0.466085, 0.106544
-0.0699313, 0.466209, 0.10524
-0.065117, 0.46627, 0.104596
-0.0602907, 0.466247, 0.104834
-0.0554652, 0.466229, 0.105026
-0.050637, 0.466182, 0.105522
-0.0458066, 0.466102, 0.106361
-0.040978, 0.466025, 0.107174
-0.036151, 0.465947, 0.107993
-0.0313256, 0.465869, 0.108806
-0.026502, 0.465792, 0.109614
-0.0216799, 0.465715, 0.110427
-0.0168594, 0.46564, 0.111214
-0.0120405, 0.465568, 0.111967
-0.0072232, 0.465497, 0.112714
-0.00240733, 0.465426, 0.113456
0.00240696, 0.465355, 0.114202
0.00721996, 0.465288, 0.114904
0.0120316, 0.465221, 0.11561
0.0168425, 0.465174, 0.116102
0.0216528, 0.465133, 0.116539
0.0264621, 0.465091, 0.116971
0.0312705, 0.46505, 0.117407
0.0360779, 0.465004, 0.117888
0.0408842, 0.464958, 0.118373
0.0456896, 0.464912, 0.118854
0.0504941, 0.464866, 0.119339
0.0552986, 0.464829, 0.119729
0.0601092, 0.464844, 0.119565
0.06492, 0.464859, 0.119408
0.0697315, 0.464877, 0.119225
0.0745436, 0.464896, 0.119027
0.079356, 0.464914, 0.118833
0.0841689, 0.464933, 0.118634
0.0889823, 0.464953, 0.11843
0.0938034, 0.465008, 0.117842
0.0986343, 0.465105, 0.116832
0.103467, 0.465202, 0.115815
0.108305, 0.46531, 0.114675
0.113147, 0.465429, 0.113429
0.117992, 0.465547, 0.112188
0.122841, 0.465671, 0.110883
0.127712, 0.465868, 0.108816
0.132588, 0.466068, 0.106714
0.137477, 0.466298, 0.104308
0.142393, 0.466597, 0.101161
0.147322, 0.466921, 0.0977592
0.15227, 0.467285, 0.093945
0.157405, 0.468179, 0.0845542
0.162605, 0.469208, 0.0737457
0.166991, 0.467897, 0.0875173
0.171605, 0.467282, 0.0939698
0.176327, 0.466986, 0.0970845
0.181058, 0.466727, 0.0997953
0.185783, 0.466469, 0.102511
0.190544, 0.46631, 0.104177
0.195321, 0.466197, 0.10536
0.200095, 0.466084, 0.106547
0.204866, 0.465971, 0.107739
0.209622, 0.465826, 0.109254
0.214393, 0.465722, 0.110356
0.219161, 0.465616, 0.111462
0.223927, 0.465511, 0.112563
0.228691, 0.465407, 0.113658
0.233453, 0.465302, 0.114759
0.238229, 0.465228, 0.115536
0.243033, 0.465212, 0.115711
0.247836, 0.465194, 0.11589
0.252644, 0.465186, 0.115974
0.257461, 0.465195, 0.115885
0.262278, 0.465203, 0.1158
0.267096, 0.465212, 0.11571
0.271928, 0.465245, 0.115355
0.276771, 0.465296, 0.114828
0.281614, 0.465345, 0.114304
0.286459, 0.465396, 0.113776
0.291311, 0.465455, 0.113152
0.296166, 0.465518, 0.112494
0.301022, 0.465581, 0.111831
0.30588, 0.465644, 0.111172
0.310751, 0.465725, 0.11032
0.31567, 0.465874, 0.108756
0.320611, 0.466052, 0.10689
0.32556, 0.466235, 0.10497
0.330513, 0.466417, 0.103053
0.33547, 0.466601, 0.101122
0.340462, 0.466827, 0.0987492
0.345545, 0.46717, 0.0951505
0.350627, 0.467503, 0.0916548
0.355705, 0.46782, 0.0883241
0.360808, 0.468162, 0.0847306
0.365921, 0.468508, 0.0811024
0.371061, 0.468878, 0.0772109
0.376217, 0.46926, 0.0732059
0.381438, 0.469712, 0.0684619
0.386762, 0.470277, 0.0625324
0.392183, 0.470944, 0.0555267
0.398236, 0.472346, 0.0408063
-0.242715, 0.480527, 0.0235543
-0.236907, 0.478699, 0.042479
-0.231443, 0.477504, 0.0548592
-0.226192, 0.476706, 0.063127
-0.221021, 0.476045, 0.0699692
-0.215803, 0.475251, 0.0781894
-0.210695, 0.474669, 0.0842161
-0.205586, 0.474056, 0.0905671
-0.200597, 0.4737, 0.0942574
-0.195633, 0.473384, 0.0975256
-0.190679, 0.473078, 0.100699
-0.185795, 0.472934, 0.102187
-0.180931, 0.472832, 0.103241
-0.176084, 0.472772, 0.103863
-0.171238, 0.472713, 0.10448
-0.166393, 0.472654, 0.105091
-0.161552, 0.472601, 0.105638
-0.15671, 0.472541, 0.106258
-0.151869, 0.472481, 0.106884
-0.147029, 0.472422, 0.107494
-0.142192, 0.472367, 0.10806
-0.137364, 0.47234, 0.108341
-0.132545, 0.472342, 0.108319
-0.127726, 0.472345, 0.108292
-0.122907, 0.472348, 0.108259
-0.118088, 0.47235, 0.108231
-0.113268, 0.472351, 0.108227
-0.108448, 0.472351, 0.108229
-0.103628, 0.472352, 0.108215
-0.0988111, 0.472365, 0.108077
-0.0939938, 0.472379, 0.107933
-0.0891762, 0.472393, 0.107793
-0.0843633, 0.472434, 0.10736
-0.0795445, 0.472446, 0.10724
-0.074734, 0.472512, 0.106558
-0.0699347, 0.472662, 0.105004
-0.065123, 0.472745, 0.104142
-0.0602942, 0.472706, 0.104549
-0.0554685, 0.472687, 0.104741
-0.050641, 0.472649, 0.105137
-0.0458095, 0.472561, 0.106046
-0.0409798, 0.472473, 0.106959
-0.036152, 0.472387, 0.107857
-0.0313259, 0.472298, 0.10877
-0.0265017, 0.472212, 0.109667
-0.0216792, 0.472125, 0.110569
-0.0168587, 0.472043, 0.111417
-0.0120399, 0.471965, 0.112218
-0.00722275, 0.471888, 0.113016
-0.00240717, 0.471814, 0.113787
0.0024068, 0.471742, 0.114534
0.0072194, 0.471669, 0.115284
0.0120306, 0.471598, 0.11602
0.016841, 0.471549, 0.116533
0.0216506, 0.471502, 0.117019
0.0264593, 0.471455, 0.1175
0.0312668, 0.471408, 0.117987
0.0360736, 0.471362, 0.118468
0.0408794, 0.471315, 0.118952
0.0456841, 0.471268, 0.119443
0.0504881, 0.471222, 0.119918
0.0552917, 0.471181, 0.120338
0.0601017, 0.471197, 0.120175
0.0649119, 0.471212, 0.120017
0.0697225, 0.471228, 0.119854
0.0745335, 0.471244, 0.119685
0.0793452, 0.471262, 0.119502
0.0841574, 0.471281, 0.119303
0.0889701, 0.471301, 0.119099
0.0937901, 0.471356, 0.118531
0.0986203, 0.471453, 0.117521
0.103453, 0.471552, 0.116504
0.108287, 0.471649, 0.115493
0.113123, 0.471747, 0.114476
0.117961, 0.471845, 0.113465
0.122801, 0.471942, 0.112458
0.127657, 0.472091, 0.110919
0.132531, 0.472293, 0.108826
0.137409, 0.472495, 0.106729
0.1423, 0.472726, 0.104339
0.147218, 0.47303, 0.101196
0.152147, 0.473345, 0.0979295
0.157123, 0.473788, 0.0933452
0.162276, 0.474718, 0.0837111
0.167381, 0.47546, 0.0760231
0.171799, 0.474263, 0.0884247
0.176428, 0.473697, 0.0942836
0.181146, 0.473395, 0.0974126
0.185866, 0.473114, 0.100327
0.190588, 0.472852, 0.103036
0.195357, 0.472715, 0.104458
0.200131, 0.472599, 0.105655
0.204894, 0.472462, 0.107076
0.209629, 0.472269, 0.109078
0.214385, 0.472128, 0.110538
0.219153, 0.472021, 0.111644
0.223919, 0.471915, 0.112744
0.228683, 0.471809, 0.113841
0.233458, 0.471729, 0.114661
0.238242, 0.471672, 0.115259
0.243035, 0.471632, 0.115672
0.247839, 0.471615, 0.115842
0.252647, 0.471608, 0.115917
0.257464, 0.471617, 0.115827
0.262281, 0.471625, 0.115742
0.267096, 0.471629, 0.115702
0.271911, 0.471633, 0.115665
0.276741, 0.471662, 0.115356
0.281584, 0.471713, 0.114833
0.286428, 0.471764, 0.114304
0.291281, 0.471827, 0.113651
0.296135, 0.471891, 0.112993
0.300992, 0.471955, 0.112329
0.30585, 0.47202, 0.111651
0.310722, 0.472104, 0.110778
0.315636, 0.47225, 0.109274
0.320581, 0.472436, 0.107349
0.32553, 0.472621, 0.105428
0.330482, 0.472807, 0.103503
0.335439, 0.472992, 0.101582
0.340399, 0.473178, 0.0996566
0.345464, 0.473503, 0.0962958
0.350542, 0.473836, 0.0928407
0.355619, 0.474158, 0.0895104
0.360708, 0.474488, 0.0860953
0.365821, 0.47484, 0.0824475
0.370962, 0.47522, 0.078517
0.376116, 0.475605, 0.0745225
0.38128, 0.475993, 0.0705032
0.386694, 0.47668, 0.0633936
0.392265, 0.477539, 0.0544925
0.398248, 0.478874, 0.0406671
-0.242486, 0.486605, 0.0282478
-0.236773, 0.484937, 0.0452919
-0.231419, 0.483949, 0.0553837
-0.226102, 0.483, 0.0650821
-0.220955, 0.482377, 0.0714469
-0.215738, 0.481572, 0.0796752
-0.210602, 0.480914, 0.0863986
-0.205522, 0.480356, 0.092092
-0.200573, 0.480086, 0.0948572
-0.195609, 0.479765, 0.098135
-0.190677, 0.479509, 0.100751
-0.1858, 0.479379, 0.102079
-0.18093, 0.479264, 0.103253
-0.176069, 0.479165, 0.104263
-0.171223, 0.479104, 0.104889
-0.166396, 0.479092, 0.105013
-0.161581, 0.479115, 0.104774
-0.156745, 0.479077, 0.105166
-0.151906, 0.479026, 0.105682
-0.147065, 0.478967, 0.106292
-0.142225, 0.478905, 0.106917
-0.13739, 0.478857, 0.107407
-0.13257, 0.478861, 0.107376
-0.12775, 0.478863, 0.107348
-0.122931, 0.478867, 0.107315
-0.118111, 0.478872, 0.107257
-0.113291, 0.478875, 0.107224
-0.108471, 0.478878, 0.107196
-0.103651, 0.478882, 0.107162
-0.0988296, 0.478881, 0.107162
-0.0940064, 0.47887, 0.107278
-0.0891856, 0.47887, 0.107277
-0.0843683, 0.47889, 0.107074
-0.0795531, 0.478925, 0.106714
-0.0747445, 0.479008, 0.105873
-0.069938, 0.479116, 0.104768
-0.0651259, 0.479198, 0.103926
-0.0603005, 0.479188, 0.104033
-0.0554717, 0.479146, 0.104455
-0.0506449, 0.479116, 0.104761
-0.045813, 0.479028, 0.105669
-0.040983, 0.478939, 0.106573
-0.0361548, 0.47885, 0.107481
-0.0313284, 0.478763, 0.108373
-0.026504, 0.478677, 0.109251
-0.0216812, 0.478592, 0.110123
-0.0168602, 0.478509, 0.11097
-0.0120412, 0.478437, 0.111702
-0.00722362, 0.478366, 0.112429
-0.00240744, 0.478288, 0.113231
0.00240705, 0.47821, 0.114027
0.00722007, 0.478131, 0.114828
0.0120315, 0.478052, 0.115633
0.0168419, 0.477988, 0.116294
0.0216513, 0.477931, 0.116871
0.0264595, 0.477874, 0.117452
0.0312666, 0.477818, 0.118027
0.0360726, 0.477761, 0.118608
0.0408774, 0.477705, 0.119182
0.0456811, 0.477648, 0.119762
0.0504838, 0.477592, 0.120336
0.0552858, 0.47754, 0.120865
0.0600943, 0.477548, 0.120782
0.0649039, 0.477565, 0.120615
0.0697138, 0.47758, 0.120461
0.0745243, 0.477596, 0.120292
0.079335, 0.477612, 0.120129
0.0841459, 0.477628, 0.11997
0.0889578, 0.477647, 0.119776
0.0937768, 0.477701, 0.119228
0.0986063, 0.477799, 0.118217
0.103438, 0.477899, 0.117201
0.108271, 0.477997, 0.1162
0.113107, 0.478095, 0.115194
0.117944, 0.478193, 0.114192
0.122783, 0.478291, 0.113195
0.127635, 0.478431, 0.111765
0.132494, 0.478583, 0.110211
0.137356, 0.478737, 0.108641
0.142231, 0.478923, 0.106738
0.147123, 0.479154, 0.104383
0.152037, 0.479439, 0.101464
0.156966, 0.479753, 0.0982523
0.161956, 0.480227, 0.0934143
0.167012, 0.480866, 0.0868897
0.172103, 0.481566, 0.0797348
0.176627, 0.480683, 0.088757
0.181266, 0.480153, 0.094173
0.185981, 0.479846, 0.0973058
0.19069, 0.479541, 0.100423
0.195393, 0.479235, 0.103555
0.200159, 0.479095, 0.10498
0.204923, 0.478956, 0.106401
0.209656, 0.478754, 0.108463
0.21438, 0.47854, 0.110648
0.219144, 0.478425, 0.111824
0.22391, 0.478318, 0.112924
0.228691, 0.478245, 0.113661
0.233475, 0.478182, 0.114304
0.23826, 0.478125, 0.114892
0.243046, 0.47807, 0.115454
0.247841, 0.478036, 0.115802
0.25265, 0.478031, 0.115857
0.257467, 0.478038, 0.115777
0.262281, 0.478042, 0.115742
0.267096, 0.478045, 0.115712
0.27191, 0.478047, 0.115685
0.276723, 0.478049, 0.115664
0.281553, 0.478079, 0.115359
0.286398, 0.478133, 0.11481
0.291251, 0.478198, 0.114148
0.296107, 0.478265, 0.11346
0.300976, 0.47835, 0.112588
0.305846, 0.478435, 0.11172
0.310717, 0.47852, 0.110858
0.315604, 0.478625, 0.109782
0.320549, 0.478815, 0.107837
0.325499, 0.479005, 0.105896
0.330452, 0.479196, 0.103951
0.335408, 0.479384, 0.10203
0.340368, 0.479572, 0.100104
0.345383, 0.479832, 0.0974488
0.350458, 0.480167, 0.0940242
0.355533, 0.480493, 0.0906935
0.360615, 0.48082, 0.087359
0.365721, 0.481169, 0.0837908
0.370875, 0.481571, 0.0796824
0.376098, 0.482052, 0.0747652
0.381332, 0.482535, 0.0698333
0.386805, 0.483304, 0.0619798
0.392347, 0.484139, 0.0534477
0.398248, 0.48539, 0.0406656
-0.2483, 0.494962, 0.0098505
-0.242471, 0.493106, 0.0285559
-0.236711, 0.491318, 0.0465822
-0.231394, 0.490394, 0.0559063
-0.22606, 0.489392, 0.0660019
-0.220888, 0.488706, 0.0729222
-0.215687, 0.487922, 0.080822
-0.210522, 0.487185, 0.0882592
-0.205494, 0.486738, 0.0927601
-0.200546, 0.486464, 0.0955248
-0.195585, 0.486147, 0.0987225
-0.190681, 0.485954, 0.100662
-0.185804, 0.485825, 0.101971
-0.18093, 0.485696, 0.103263
-0.176068, 0.485595, 0.104283
-0.171217, 0.485516, 0.105079
-0.166399, 0.485531, 0.104934
-0.161581, 0.485546, 0.104774
-0.156769, 0.485581, 0.10443
-0.151934, 0.485547, 0.104767
-0.147096, 0.485496, 0.105288
-0.142257, 0.485443, 0.105813
-0.137421, 0.485392, 0.106333
-0.132596, 0.485383, 0.10642
-0.127776, 0.48539, 0.106353
-0.122956, 0.485396, 0.10629
-0.118136, 0.485402, 0.106233
-0.113315, 0.485408, 0.10617
-0.108494, 0.485411, 0.106141
-0.103673, 0.485414, 0.106107
-0.0988525, 0.485422, 0.106029
-0.0940293, 0.485417, 0.106083
-0.0892052, 0.485405, 0.106203
-0.0843813, 0.485393, 0.106318
-0.0795658, 0.485432, 0.105929
-0.0747557, 0.48551, 0.105137
-0.06995, 0.48563, 0.103933
-0.0651348, 0.485697, 0.10326
-0.0603075, 0.485676, 0.103467
-0.0554771, 0.485625, 0.103978
-0.0506489, 0.485586, 0.104374
-0.0458167, 0.485496, 0.105282
-0.0409865, 0.485408, 0.106165
-0.036158, 0.485321, 0.107043
-0.0313313, 0.485235, 0.107915
-0.0265065, 0.485148, 0.108793
-0.0216832, 0.48506, 0.109675
-0.0168618, 0.484976, 0.110522
-0.0120423, 0.484904, 0.111254
-0.00722428, 0.484832, 0.111981
-0.00240769, 0.484759, 0.112712
0.00240733, 0.484686, 0.113449
0.00722094, 0.484608, 0.11424
0.012033, 0.484528, 0.115046
0.0168439, 0.484461, 0.115716
0.0216538, 0.484404, 0.116292
0.0264627, 0.484346, 0.116873
0.0312703, 0.484289, 0.117448
0.0360769, 0.484233, 0.118019
0.0408828, 0.484181, 0.118544
0.0456877, 0.484129, 0.119064
0.0504915, 0.484077, 0.119588
0.0552946, 0.484028, 0.120088
0.0601029, 0.484028, 0.120084
0.0649111, 0.484029, 0.120075
0.069719, 0.484026, 0.120102
0.0745269, 0.484024, 0.120122
0.0793347, 0.484022, 0.120147
0.0841423, 0.484019, 0.120177
0.08895, 0.484016, 0.120202
0.0937632, 0.484043, 0.119933
0.0985918, 0.484142, 0.118932
0.103422, 0.484241, 0.117936
0.108255, 0.48434, 0.116936
0.113089, 0.48444, 0.115929
0.117926, 0.484539, 0.114928
0.122764, 0.484638, 0.11393
0.127615, 0.484776, 0.112541
0.132473, 0.484931, 0.110976
0.137334, 0.485086, 0.109417
0.142198, 0.48524, 0.107862
0.147065, 0.485396, 0.106292
0.151943, 0.485573, 0.104508
0.156855, 0.485848, 0.101735
0.161786, 0.486163, 0.0985579
0.166767, 0.486604, 0.0941133
0.17174, 0.486999, 0.0901308
0.17675, 0.487475, 0.0853286
0.181411, 0.486987, 0.0902462
0.186104, 0.48661, 0.0940552
0.1908, 0.486258, 0.0975995
0.195484, 0.485894, 0.101268
0.200186, 0.485592, 0.104315
0.20495, 0.485451, 0.105734
0.209682, 0.485242, 0.107845
0.214406, 0.485024, 0.110041
0.219137, 0.48483, 0.112001
0.223922, 0.484764, 0.112664
0.228708, 0.4847, 0.113312
0.233492, 0.484636, 0.113955
0.238278, 0.48458, 0.114522
0.243064, 0.484524, 0.115085
0.247849, 0.484469, 0.115642
0.252652, 0.484451, 0.115816
0.257467, 0.484454, 0.115786
0.26228, 0.484457, 0.11576
0.267095, 0.48446, 0.115729
0.271909, 0.484462, 0.115704
0.276722, 0.484465, 0.115682
0.281537, 0.484468, 0.115645
0.286372, 0.484506, 0.115266
0.291236, 0.484591, 0.114404
0.296103, 0.484678, 0.113527
0.300971, 0.484764, 0.112666
0.305841, 0.48485, 0.111798
0.310712, 0.484936, 0.110926
0.315586, 0.485022, 0.110059
0.320516, 0.485193, 0.108342
0.325465, 0.485385, 0.106401
0.330418, 0.485578, 0.104456
0.335375, 0.485771, 0.102506
0.340336, 0.485964, 0.100561
0.345301, 0.486159, 0.0986004
0.350373, 0.486496, 0.0952058
0.355454, 0.486835, 0.0917869
0.36059, 0.48724, 0.087697
0.365752, 0.48767, 0.0833654
0.370957, 0.488144, 0.0785828
0.376183, 0.488633, 0.0736566
0.381435, 0.489144, 0.0685072
0.386891, 0.4899, 0.060883
0.39243, 0.49074, 0.0524116
0.398248, 0.491906, 0.0406628
0.404732, 0.493855, 0.0210047
-0.24801, 0.50093, 0.0156941
-0.242485, 0.499667, 0.028266
-0.236723, 0.49785, 0.046339
-0.231369, 0.496835, 0.0564384
-0.226074, 0.495904, 0.0657072
-0.220822, 0.495031, 0.0743961
-0.215638, 0.494271, 0.0819569
-0.21049, 0.493563, 0.0889964
-0.205473, 0.493135, 0.093257
-0.200519, 0.492841, 0.0961804
-0.195563, 0.49253, 0.0992789
-0.190684, 0.492399, 0.100582
-0.185807, 0.492268, 0.10188
-0.180933, 0.492136, 0.103193
-0.176068, 0.492027, 0.104281
-0.171227, 0.491977, 0.104779
-0.166401, 0.491969, 0.104863
-0.161582, 0.491983, 0.104723
-0.156768, 0.492011, 0.104439
-0.151955, 0.492045, 0.104099
-0.147123, 0.492017, 0.104381
-0.142286, 0.491972, 0.104827
-0.137455, 0.491946, 0.105089
-0.132625, 0.491919, 0.105354
-0.127803, 0.491922, 0.105327
-0.122982, 0.491928, 0.105265
-0.118161, 0.491934, 0.105207
-0.113339, 0.49194, 0.105143
-0.108518, 0.491946, 0.105085
-0.103695, 0.491949, 0.105062
-0.0988732, 0.491955, 0.105002
-0.0940523, 0.491966, 0.104888
-0.089227, 0.491954, 0.105008
-0.0844019, 0.491942, 0.105123
-0.079584, 0.491973, 0.104814
-0.0747673, 0.492017, 0.104381
-0.0699628, 0.492152, 0.103036
-0.0651492, 0.492239, 0.102175
-0.0603192, 0.492204, 0.102521
-0.0554873, 0.492148, 0.103082
-0.0506568, 0.492095, 0.103607
-0.0458248, 0.492014, 0.104415
-0.0409936, 0.491924, 0.105309
-0.036164, 0.491831, 0.106236
-0.0313361, 0.491737, 0.107168
-0.0265102, 0.491644, 0.108095
-0.0216861, 0.49155, 0.109027
-0.0168638, 0.49146, 0.109923
-0.0120437, 0.491383, 0.110685
-0.00722503, 0.491304, 0.111472
-0.00240792, 0.491226, 0.112253
0.00240755, 0.491151, 0.112999
0.0072217, 0.491077, 0.11373
0.0120344, 0.491004, 0.114456
0.0168459, 0.490936, 0.115137
0.0216566, 0.490883, 0.115663
0.0264664, 0.490831, 0.116184
0.031275, 0.490778, 0.11671
0.0360827, 0.490726, 0.11723
0.0408894, 0.490673, 0.117755
0.0456951, 0.490621, 0.118275
0.0504997, 0.490568, 0.118799
0.0553033, 0.490516, 0.119318
0.0601123, 0.490516, 0.119315
0.0649213, 0.490517, 0.119307
0.0697305, 0.490518, 0.119293
0.0745397, 0.490519, 0.119284
0.0793483, 0.490517, 0.119309
0.0841568, 0.490514, 0.119339
0.0889653, 0.490511, 0.119363
0.0937791, 0.490537, 0.119104
0.0986031, 0.490611, 0.118372
0.103428, 0.490684, 0.117645
0.108255, 0.490758, 0.116913
0.113084, 0.490831, 0.116185
0.117913, 0.490904, 0.115452
0.122746, 0.490984, 0.114664
0.127594, 0.491117, 0.113334
0.132447, 0.491256, 0.111949
0.137302, 0.491396, 0.110559
0.14216, 0.491535, 0.109173
0.147021, 0.491675, 0.107782
0.151884, 0.491814, 0.106397
0.15677, 0.492017, 0.104379
0.161672, 0.492254, 0.102018
0.166605, 0.49257, 0.0988765
0.171575, 0.492977, 0.0948253
0.176469, 0.493146, 0.0931449
0.181406, 0.493425, 0.0903759
0.186164, 0.493214, 0.092474
0.19089, 0.49293, 0.0952926
0.195576, 0.492562, 0.0989609
0.200262, 0.492211, 0.102454
0.204978, 0.491948, 0.105067
0.209709, 0.491731, 0.107228
0.214454, 0.491556, 0.108964
0.219197, 0.491387, 0.110647
0.223938, 0.49122, 0.112314
0.228724, 0.491155, 0.112962
0.233509, 0.491092, 0.113584
0.238296, 0.491035, 0.114151
0.243083, 0.49098, 0.114704
0.247872, 0.490931, 0.115191
0.252651, 0.490865, 0.115842
0.257454, 0.490846, 0.116031
0.262267, 0.490849, 0.116005
0.267081, 0.490851, 0.115984
0.271894, 0.490853, 0.115959
0.276708, 0.490856, 0.115937
0.281521, 0.490857, 0.115921
0.286348, 0.490882, 0.11568
0.291219, 0.49098, 0.114699
0.296092, 0.491079, 0.113714
0.300966, 0.491177, 0.112742
0.305836, 0.491264, 0.111875
0.310708, 0.491352, 0.111002
0.315581, 0.491439, 0.110135
0.320483, 0.491568, 0.108846
0.325432, 0.491763, 0.106905
0.330384, 0.491959, 0.10496
0.335341, 0.492155, 0.10301
0.340317, 0.492373, 0.100837
0.34532, 0.492624, 0.098341
0.350414, 0.492996, 0.0946383
0.355543, 0.493407, 0.0905547
0.360681, 0.493818, 0.0864568
0.365845, 0.494254, 0.0821252
0.371041, 0.494721, 0.0774722
0.376267, 0.495215, 0.0725565
0.381544, 0.495764, 0.0670996
0.386962, 0.49648, 0.0599728
0.392484, 0.497308, 0.0517311
0.398248, 0.498421, 0.040658
0.404581, 0.500209, 0.0228677
-0.247934, 0.507322, 0.0172234
-0.242496, 0.50622, 0.0280538
-0.236791, 0.504502, 0.0449224
-0.231399, 0.503394, 0.0558047
-0.22609, 0.502421, 0.065361
-0.220821, 0.501497, 0.0744367
-0.215618, 0.500686, 0.0824032
-0.210485, 0.500003, 0.0891137
-0.205511, 0.499673, 0.0923505
-0.200495, 0.499225, 0.0967555
-0.195567, 0.498976, 0.0991969
